# .PCD v0.7 - Point Cloud Data file format
VERSION 0.7
FIELDS x y z
SIZE 4 4 4
TYPE F F F
COUNT 1 1 1
WIDTH 1578
HEIGHT 1
VIEWPOINT 0 0 0 1 0 0 0
POINTS 1578
DATA ascii
1.5584459 5.4927912 -1.4946901
2.572782 9.0678501 1.1022702
1.8629056 6.5658689 -1.6171428
2.4353635 8.5835142 1.2539498
1.9596869 6.9069772 -1.5260719
2.4014452 8.4639683 1.4454666
2.2402785 7.8959317 -1.5463904
2.4022913 8.4669504 1.6582222
2.5729663 8.9670982 -1.5326874
2.5733447 8.9684172 -1.3112891
2.5706363 8.9589777 -1.0899583
2.5802586 8.9925127 -0.87281275
2.5763466 8.978879 -0.65319961
2.578732 8.9871922 -0.43602091
2.5880079 9.0195208 -0.21785654
1.1401781 3.9736581 -1.6142738
2.5820863 8.9988823 0
1.2253647 4.2705441 -1.6170712
2.5902138 9.0272074 0.21804221
1.3278838 4.6278358 -1.6268345
2.5880992 9.0198383 0.43760473
1.4470133 5.043016 -1.6371197
2.592855 9.0364122 0.65738505
1.5610311 5.4403815 -1.6229529
2.5934401 9.0384521 0.87727147
1.5747355 5.4881434 -1.4946901
2.6013172 9.0659046 1.102967
2.461365 8.5781536 1.254228
1.9801704 6.9011326 -1.5260719
2.4287236 8.4643946 1.4467636
2.2647791 7.8930283 -1.5471309
2.4306533 8.4711199 1.6604441
2.6007438 8.9693556 -1.5343087
2.6000323 8.9669027 -1.3121241
2.6022813 8.974659 -1.0927458
2.6070228 8.9910107 -0.87337005
2.6047425 8.9831476 -0.6540367
2.6093814 8.9991455 -0.43695256
2.612627 9.0103388 -0.21781012
1.1512696 3.970459 -1.6142738
2.614445 9.0166092 0
1.2372849 4.2671061 -1.6170712
2.618752 9.0314627 0.21832074
1.3402736 4.6222897 -1.6261944
2.6210654 9.0394402 0.43890911
1.4578995 5.0279541 -1.6335452
2.6214113 9.0406342 0.65822214
1.5762166 5.4360018 -1.6229529
2.6258781 9.0560389 0.87968671
1.5927483 5.4930158 -1.4972225
2.6299417 9.0700531 1.1043609
1.9017729 6.5587692 -1.618065
2.4886181 8.5826616 1.2558981
1.9999781 6.8974562 -1.5264878
2.4528992 8.4594746 1.4470879
2.2857158 7.8828983 -1.5463904
2.4553931 8.4680758 1.6611847
2.6289115 8.9611406 -1.5343087
2.6298649 8.9643908 -1.3129591
2.6349394 8.9816885 -1.0946043
2.638622 8.9942408 -0.87448478
2.6323919 8.9730053 -0.65389717
2.6421418 9.0062389 -0.43769795
2.6420491 9.0059233 -0.21790296
1.1632141 3.9650347 -1.6135464
2.6461391 9.019865 0
1.2496275 4.2595911 -1.6157032
2.6510549 9.0366201 0.21864569
1.3558563 4.6216922 -1.6274747
2.655077 9.0503311 0.43984076
1.4774516 5.0361724 -1.6377155
2.652611 9.0419254 0.65891963
1.5932879 5.4310226 -1.6229529
2.6571207 9.0572977 0.88061565
1.6110882 5.4916983 -1.4982356
2.6606627 9.0693703 1.1052902
1.923466 6.5564966 -1.6189873
2.5144565 8.5710001 1.2553415
2.0210881 6.8892608 -1.5260719
2.4833546 8.464983 1.4493575
2.3110249 7.8775644 -1.5467607
2.4847529 8.4697485 1.6630362
2.6572888 8.9651175 -1.5362542
2.6588266 8.9703054 -1.3149077
2.6605737 8.9762001 -1.0948366
2.6659904 8.9944744 -0.87522793
2.6602726 8.9751844 -0.65459478
2.6689835 9.0045729 -0.43797743
2.668891 9.004261 -0.21804221
1.1748108 3.9635572 -1.6142738
2.6735888 9.0201101 0
1.2620509 4.2578864 -1.6163872
2.6762779 9.0291824 0.21864569
1.3698334 4.6215215 -1.6287552
2.6803384 9.042881 0.43984076
1.4893384 5.0247054 -1.6353325
2.678416 9.036396 0.65905923
1.6117251 5.4376116 -1.6262604
2.6835332 9.0536604 0.88098717
1.6275163 5.4908876 -1.4992485
2.6865416 9.0638103 1.1055224
1.9395543 6.5436368 -1.6171428
2.5383801 8.5639448 1.2553415
2.0414295 6.8873415 -1.5269036
2.5092254 8.4655838 1.4506544
2.3335714 7.8729649 -1.5471309
2.5100696 8.4684315 1.6641473
2.6823123 8.9576626 -1.5362542
2.6861367 8.9704342 -1.316021
2.6896172 8.9820566 -1.0964626
2.6928093 8.9927177 -0.87578523
2.6893306 8.9810991 -0.65557134
2.6964095 9.0047398 -0.43835011
2.6951711 9.0006046 -0.21813507
1.1869427 3.9638307 -1.6157289
2.7010608 9.0202732 0
1.2707009 4.2435436 -1.612283
2.7037747 9.029336 0.21883139
1.3816459 4.614048 -1.6274747
2.7090173 9.0468445 0.44039977
1.5055541 5.0278425 -1.6377155
2.7059276 9.0365267 0.65961719
1.6269026 5.4330897 -1.6262604
2.7116604 9.0556707 0.88191611
1.6445074 5.4918818 -1.5007681
2.7152596 9.0676908 1.1069162
1.957819 6.5381951 -1.6171428
2.5622838 8.5568237 1.2553415
2.0600924 6.8797407 -1.5264878
2.5334208 8.4604349 1.4509788
2.3566742 7.8701835 -1.5478717
2.5370891 8.4726849 1.6663688
2.7140267 8.9666634 -1.5391723
2.7127435 8.9624243 -1.316021
2.7202864 8.9873447 -1.0980887
2.7212129 8.9904051 -0.87634254
2.7177026 8.9788084 -0.65598989
2.7265906 9.008172 -0.43890911
2.7259219 9.0059633 -0.21846002
1.199779 3.9638574 -1.6171837
2.7283947 9.0141325 0
1.2821984 4.2361565 -1.6109148
2.7317142 9.0250998 0.21892422
1.3953314 4.6099277 -1.6274747
2.737587 9.0445032 0.44067925
1.5182545 5.0160441 -1.6353325
2.7356203 9.0380049 0.6603148
1.6446882 5.4337587 -1.6279143
2.7408276 9.0552092 0.88265926
1.6607966 5.4869776 -1.5007681
2.7450323 9.0691004 1.1080778
1.976084 6.5286312 -1.6162206
2.5865164 8.545392 1.2547848
2.0799313 6.8717241 -1.5260719
2.5619452 8.4642134 1.4529243
2.3805869 7.865037 -1.548242
2.5633583 8.4688816 1.6671096
2.7402081 8.9628248 -1.5398208
2.7418127 8.9680729 -1.3179693
2.7447908 8.9778137 -1.0978565
2.7486355 8.9903898 -0.87708575
2.7433474 8.973093 -0.65612936
2.752902 9.004344 -0.43909544
2.7522283 9.002141 -0.21855286
1.2092087 3.955147 -1.6150012
2.7588174 9.0236931 0
1.2956707 4.2379518 -1.6129669
2.7598281 9.0269985 0.21915634
1.4104143 4.6132612 -1.6300356
2.7645843 9.0425558 0.44095877
1.5305805 5.0063076 -1.6335452
2.7637637 9.0398712 0.66101235
1.660979 5.4328222 -1.6290169
2.7672665 9.0513287 0.88303083
1.6778088 5.4878697 -1.5022875
2.774411 9.0746975 1.1097039
1.9965824 6.5305324 -1.618065
2.6109469 8.5400295 1.2550632
2.0973954 6.8602772 -1.5248244
2.5896094 8.4702377 1.4551939
2.4031141 7.8602386 -1.5486122
2.5892949 8.4692087 1.6685908
2.7702835 8.9659691 -1.5417662
2.769577 8.9636831 -1.318526
2.7761064 8.9848146 -1.0997149
2.7782362 8.9917078 -0.87801468
2.7729023 8.9744444 -0.65682697
2.7825537 9.005681 -0.43956128
2.7806954 8.9996672 -0.21869214
1.2225878 3.956882 -1.6171837
2.7873487 9.0212002 0
1.3082385 4.2340889 -1.6129669
2.7889588 9.026412 0.21934204
1.4224173 4.6036258 -1.6281151
2.7937593 9.0419483 0.44133142
1.5476812 5.0090404 -1.6359282
2.7923386 9.0373497 0.6614309
1.6776577 5.4297071 -1.6295681
2.7970479 9.0525913 0.88395977
1.6963679 5.490262 -1.5043136
2.8019087 9.0683241 1.1099361
2.015949 6.52458 -1.618065
2.6368573 8.5341377 1.2553415
2.1206276 6.8633699 -1.5269036
2.6147282 8.4625168 1.4551939
2.4235227 7.8436847 -1.5467607
2.6167314 8.4690008 1.670072
2.799428 8.971385 -1.5440359
2.7999098 8.972929 -1.3210312
2.7994132 8.9713373 -1.099018
2.8057101 8.9915171 -0.87875777
2.8038986 8.9857111 -0.65822214
2.807694 8.9978752 -0.43956128
2.8123701 9.0128613 -0.21920276
1.233079 3.9516735 -1.6164563
2.811341 9.0095625 0
1.3200583 4.2304182 -1.6129669
2.8165393 9.0262213 0.21952771
1.4363974 4.6032529 -1.6293954
2.8118596 9.0112247 0.44021344
1.5633707 5.0101662 -1.6377155
2.8235104 9.048562 0.66282606
1.6945333 5.4305062 -1.6312219
2.8264713 9.0580511 0.88526022
1.7134235 5.491044 -1.505833
2.8266323 9.0585661 1.1097039
2.032424 6.5133514 -1.6166818
2.6618609 8.5305214 1.2558981
2.1427011 6.8667583 -1.5289828
2.6412914 8.4646015 1.456815
2.4483466 7.8462667 -1.5486122
2.6415446 8.4654121 1.6708126
2.8287847 8.9663105 -1.5446844
2.830467 8.9716434 -1.3221445
2.8275821 8.9624987 -1.099018
2.8309467 8.9731636 -0.8778289
2.8381152 8.9958858 -0.65961719
2.8419569 9.0080624 -0.44049293
2.8454821 9.0192366 -0.21957412
1.2449261 3.9460037 -1.6157289
2.8384261 8.996871 0
1.3344723 4.2298355 -1.6143351
2.843076 9.0116091 0.21938846
1.4480007 4.5896831 -1.6261944
2.8497713 9.0328312 0.44170409
1.5762299 4.9961271 -1.6347368
2.8579242 9.0586739 0.66422111
1.7115844 5.4251561 -1.6312219
2.857908 9.0586224 0.88618916
1.7295005 5.4819441 -1.5048201
2.8538795 9.0458536 1.1092392
2.0522895 6.5050783 -1.6162206
2.6886458 8.5221176 1.2558981
2.1654389 6.8637242 -1.5298144
2.6714318 8.4675541 1.4587605
2.4718001 7.8347883 -1.5478717
2.6710818 8.466445 1.6726642
2.8556077 8.9640179 -1.5456572
2.8561094 8.9655924 -1.322423
2.8550093 8.9621391 -1.0999472
2.859014 8.9747105 -0.87875777
2.8656464 8.9955301 -0.66017526
2.8677058 9.0019951 -0.44058609
2.8730834 9.0188761 -0.21975982
1.2570709 3.9460623 -1.6171837
2.8665729 8.9984388 0
1.3468487 4.2278833 -1.6150191
2.871263 9.0131607 0.21962057
1.4590857 4.5802054 -1.6242737
2.8670995 9.0000916 0.44049293
1.5913336 4.9953437 -1.6359282
2.8862362 9.0601635 0.66491872
1.723809 5.4111967 -1.6284657
2.8844006 9.0544014 0.88656074
1.7471505 5.4844675 -1.5068461
2.8827455 9.0492058 1.110633
2.0722182 6.5048852 -1.6176039
2.7118309 8.5126886 1.2556198
2.1828148 6.8520589 -1.5285668
2.6968632 8.465704 1.4597332
2.4942646 7.8297281 -1.548242
2.6965022 8.46457 1.673775
2.8836529 8.9654016 -1.5472784
2.882957 8.9632368 -1.3232579
2.8830693 8.9635868 -1.1011087
2.8840678 8.966691 -0.87875777
2.8925905 8.9931889 -0.66059381
2.8958943 9.0034599 -0.44105193
2.9007096 9.0184307 -0.21994552
1.2658049 3.9354422 -1.6142738
2.8929179 8.9942064 0
1.3586513 4.2241054 -1.6150191
2.8982606 9.0108166 0.21975982
1.4712915 4.5743089 -1.6236333
2.9056818 9.0338907 0.44254258
1.6041095 4.9872456 -1.6347368
2.914583 9.0615644 0.66561627
1.7412695 5.413682 -1.6306707
2.9127257 9.0557899 0.88748968
1.7648306 5.4869342 -1.508872
2.9110484 9.0505753 1.1117946
2.0909729 6.5009251 -1.618065
2.7349887 8.5031977 1.2553415
2.2013443 6.8440738 -1.528151
2.7223086 8.4637747 1.4607059
2.5173254 7.8264732 -1.5489825
2.7237425 8.4682331 1.6759968
2.9111142 8.9648218 -1.5485753
2.9128675 8.9702215 -1.3254846
2.9093142 8.9592791 -1.1015732
2.9140151 8.9737558 -0.88024408
2.9220045 8.9983597 -0.66157037
2.9228749 9.0010395 -0.44133142
2.9289682 9.019804 -0.22017761
1.2779399 3.935436 -1.6157289
2.9217274 8.9975061 0
1.3710216 4.2220826 -1.6157032
2.9252632 9.0083942 0.21989907
1.4863997 4.5773911 -1.6261944
2.9345984 9.0371418 0.44310158
1.618619 4.9845629 -1.6353325
2.9417231 9.059083 0.66603482
1.7575669 5.4124556 -1.6317732
2.9416912 9.0589848 0.88860428
1.780145 5.4819846 -1.508872
2.9369228 9.0443001 1.1120268
2.1097188 6.496912 -1.6185262
2.75811 8.4936438 1.2550632
2.2216551 6.8416219 -1.5289828
2.7495887 8.4674025 1.4626514
2.537956 7.8156753 -1.548242
2.7491992 8.4662027 1.6771078
2.9423394 8.9650097 -1.5501964
2.9416497 8.9629087 -1.325763
2.941781 8.9633083 -1.1031994
2.9452956 8.9740162 -0.88117296
2.9521246 8.9948235 -0.66198897
2.9548745 9.0032024 -0.44189042
2.9610298 9.0219574 -0.22045614
1.2932012 3.9402528 -1.6193662
2.9537201 8.9996853 0
1.3860362 4.2231116 -1.6177552
2.9566653 9.0086594 0.22013119
1.4989992 4.5672984 -1.6242737
2.9548745 9.0032024 0.44189042
1.6318882 4.9721975 -1.6329495
2.9726558 9.0573807 0.6665929
1.772163 5.399601 -1.6295681
2.9713767 9.053483 0.88897592
1.8003742 5.4855576 -1.5114046
2.9702756 9.0501289 1.1138853
2.1325452 6.4976492 -1.6203706
2.7878666 8.4943466 1.2564549
2.2431364 6.834609 -1.5289828
2.7786367 8.4662237 1.4639484
2.5637212 7.8113985 -1.5489825
2.778846 8.4668617 1.6789594
2.9714129 8.9637327 -1.5514935
2.9732187 8.9691801 -1.3279899
2.9696157 8.9583111 -1.103664
2.9750447 8.9746885 -0.88210189
2.9813135 8.9935989 -0.66254699
2.983463 9.0000839 -0.44216993
2.9903049 9.0207233 -0.22064184
1.3037152 3.9328611 -1.6179113
2.9841881 9.0022707 0
1.3979703 4.2171965 -1.6170712
2.9865301 9.0093355 0.2203633
1.5119492 4.5610318 -1.6236333
2.9947784 9.0342188 0.44384694
1.6460346 4.9655213 -1.6323538
3.0020299 9.0560932 0.66715091
1.7851534 5.3851948 -1.6268119
3.0007348 9.052186 0.88971901
1.8184702 5.4857006 -1.5129242
2.9989929 9.0469313 1.1145822
2.1530416 6.494987 -1.6212929
2.8111901 8.4803953 1.2556198
2.2640228 6.8297796 -1.5293986
2.8068516 8.467308 1.4655695
2.5831788 7.792563 -1.5467607
2.8045766 8.4604445 1.6793296
3.0023794 8.9679766 -1.5537632
3.0004444 8.9621973 -1.3282682
2.9993336 8.9588795 -1.1048255
3.0035551 8.971488 -0.88265926
3.0117831 8.9960651 -0.66338408
3.0139573 9.0025597 -0.44272894
3.0202289 9.0212917 -0.22087395
1.3147862 3.9272094 -1.6171837
3.0185027 9.0161362 0
1.4110725 4.2148123 -1.6177552
3.0202289 9.0212917 0.22087395
1.5278807 4.5637131 -1.6261944
3.0247397 9.0347662 0.44431275
1.6619714 4.9642363 -1.6335452
3.0333185 9.0603905 0.66812748
1.8035638 5.387167 -1.6290169
3.029475 9.0489101 0.89027637
1.8341231 5.478446 -1.5124176
3.0302351 9.0511808 1.1162083
2.174155 6.4941068 -1.6226763
2.8394818 8.4814091 1.2570115
2.2824125 6.8174672 -1.528151
2.8344669 8.4664297 1.4668665
2.6106544 7.7979112 -1.5493528
2.8359044 8.4707232 1.6830326
3.0261798 8.9662218 -1.5547358
3.0204375 8.9492083 -1.3274331
3.030112 8.9778728 -1.1080778
3.0343859 8.9905357 -0.88526022
3.0369492 8.9981308 -0.66408163
3.0391436 9.004632 -0.44319478
3.0441842 9.0195665 -0.2210132
1.3237839 3.9222193 -1.6164563
3.0430858 9.0163126 0
1.4189646 4.2042289 -1.6150191
3.0480206 9.0309343 0.22129174
1.5366052 4.5527844 -1.6236333
3.0397825 9.006525 0.44328794
1.6759298 4.9655871 -1.6353325
3.0567276 9.0567322 0.66840655
1.8228717 5.400959 -1.6345296
3.056674 9.0565729 0.89176267
1.8493621 5.4794469 -1.5139371
3.054251 9.0493937 1.1169051
2.1875296 6.4813981 -1.6208317
2.8621004 8.4800739 1.2578466
2.2984409 6.8100157 -1.5277352
2.8576734 8.4669571 1.4681636
2.6265607 7.782197 -1.5475013
2.8565967 8.4637671 1.6830326
3.0590808 8.965477 -1.556357
3.0520144 8.944767 -1.3282682
3.0630724 8.9771757 -1.1092392
3.0667529 8.9879618 -0.88600332
3.068702 8.9936743 -0.66450012
3.0715659 9.0020676 -0.44356743
3.0747209 9.0113144 -0.22105962
1.3367823 3.9178081 -1.6164563
3.0774875 9.0194225 0
1.4353251 4.206615 -1.6177552
3.0805323 9.0283461 0.22147743
1.553529 4.5530438 -1.625554
3.0747917 9.0115223 0.44403327
1.692386 4.9600024 -1.6353325
3.0899634 9.0559874 0.66910404
1.8407707 5.3948846 -1.6345296
3.0892603 9.0539265 0.89250582
1.8700205 5.4806089 -1.5159631
3.0880902 9.0504971 1.118299
2.2115231 6.4814763 -1.6226763
2.8921227 8.47616 1.2586817
2.3216412 6.8042078 -1.528151
2.8895571 8.4686413 1.470109
2.6536207 7.7771649 -1.548242
2.8871851 8.461689 1.6845139
3.0863981 8.9686337 -1.5583025
3.0786464 8.9461088 -1.3296599
3.0904455 8.9803953 -1.110633
3.0941639 8.9911995 -0.88711804
3.094837 8.9931555 -0.6650582
3.0977261 9.0015516 -0.4439401
3.1028595 9.016468 -0.22138457
1.3476421 3.9160562 -1.6171837
3.1036956 9.018898 0
1.4469461 4.2046199 -1.6184393
3.1080647 9.0315943 0.22175597
1.5654449 4.5489607 -1.625554
3.0977261 9.0015516 0.4439401
1.7053671 4.955554 -1.6353325
3.1175594 9.0591841 0.66994113
1.8573923 5.3973179 -1.6367347
3.117492 9.0589876 0.89380628
1.8856233 5.479353 -1.5169761
3.1150086 9.0517721 1.1194605
2.230386 6.481184 -1.6240596
2.9168837 8.4760485 1.259795
2.3400853 6.7999554 -1.5285668
2.9123628 8.4629116 1.4704332
2.6726956 7.7664733 -1.5475013
2.9138074 8.4671097 1.687106
3.1152048 8.9607582 -1.5586268
3.1099861 8.9457464 -1.3310516
3.1199455 8.9743938 -1.1110976
3.1250093 8.9889603 -0.88786119
3.1250381 8.9890432 -0.6654768
3.1299243 9.0030975 -0.44449911
3.1337948 9.0142307 -0.22157027
1.3623843 3.9188423 -1.6200936
3.1333258 9.0128822 0
1.4582959 4.1947279 -1.6163872
3.1397038 9.0312281 0.22198805
1.581594 4.5493894 -1.6274747
3.1358287 9.0200815 0.44533759
1.720299 4.948369 -1.6347368
3.1492782 9.0587683 0.67063874
1.8749695 5.3932724 -1.6372859
3.1472421 9.0529118 0.89417785
1.9034621 5.4752302 -1.5174826
3.1440806 9.0438185 1.1196928
2.2500958 6.4723077 -1.6235985
2.9467478 8.4761982 1.2611867
2.3601506 6.7888756 -1.5277352
2.9434702 8.4667702 1.4727029
2.6990163 7.7636089 -1.5486122
2.9403915 8.4579144 1.687106
3.1447871 8.9650612 -1.5608964
3.1382315 8.946372 -1.3324434
3.1502535 8.9806442 -1.112956
3.153393 8.9895945 -0.88879013
3.1534283 8.9896946 -0.66617429
3.1590199 9.0056353 -0.44505811
3.1622624 9.0148792 -0.22180238
1.3727051 3.9132648 -1.6193662
3.1617906 9.0135336 0
1.4712474 4.1941862 -1.6177552
3.1655717 9.024313 0.22203447
1.5936642 4.5431681 -1.6268345
3.1696002 9.0357971 0.44654876
1.7315822 4.9363403 -1.6323538
3.1765428 9.0555887 0.67105728
1.888113 5.3825736 -1.6356323
3.1758044 9.053484 0.89510679
1.923867 5.4844995 -1.5215347
3.1752396 9.0518732 1.1217835
2.2668715 6.4623265 -1.6226763
2.9697495 8.4660683 1.2609084
2.3797457 6.7841048 -1.528151
2.9690604 8.4641047 1.4736756
2.7206845 7.756042 -1.5486122
2.9698524 8.466363 1.6904386
3.1717885 8.9618244 -1.5618693
3.16717 8.9487753 -1.3341135
3.1779737 8.9793005 -1.1138853
3.179816 8.9845066 -0.88916171
3.1825168 8.992137 -0.66701138
3.1848252 8.9986601 -0.44515127
3.1907628 9.0154362 -0.22203447
1.3830073 3.9076593 -1.6186388
3.1902881 9.0140953 0
1.4842095 4.1936045 -1.6191233
3.1947653 9.0267448 0.222313
1.6088749 4.5458436 -1.6293954
3.1874912 9.0061922 0.44552392
1.7466357 4.9350839 -1.6335452
3.2051492 9.0560846 0.67175484
1.905704 5.3845286 -1.6378373
3.2050633 9.0558424 0.89622152
1.9398223 5.4809294 -1.5220412
3.2018335 9.0467167 1.1222482
2.2901056 6.4706473 -1.6263652
2.9953642 8.4633408 1.2617434
2.3980308 6.7755876 -1.5277352
2.9953218 8.4632215 1.4749726
2.739712 7.7410016 -1.5471309
2.9961092 8.4654465 1.6919199
3.2016869 8.9616652 -1.5634903
3.1963754 8.9467983 -1.3352269
3.2072778 8.977314 -1.1148145
3.2124918 8.9919081 -0.89083374
3.2152269 8.9995642 -0.66826707
3.2168903 9.00422 -0.4458966
3.2181735 9.0078115 -0.22208092
1.3914627 3.8947663 -1.6150012
3.223078 9.0215397 0
1.49475 4.1838722 -1.6170712
3.2255731 9.0285234 0.22259153
1.6204444 4.5356965 -1.6274747
3.2276447 9.0343218 0.44738725
1.7612721 4.9298792 -1.6335452
3.2346926 9.0540495 0.67231292
1.922967 5.3824706 -1.6389397
3.231921 9.0462914 0.89622152
1.9567285 5.4769707 -1.5225476
3.2366841 9.0596237 1.1250358
2.3112602 6.4693213 -1.6277486
3.0251291 8.4674721 1.2636919
2.416151 6.7629151 -1.5264878
3.023078 8.46173 1.4762696
2.7653153 7.7402415 -1.5486122
3.0231996 8.4620705 1.6930308
3.2345121 8.9645576 -1.56576
3.2332036 8.9609318 -1.3388454
3.2388344 8.9765377 -1.115976
3.2359922 8.9686604 -0.88953322
3.2448366 8.9931726 -0.66854608
3.2451606 8.994071 -0.4458966
3.2457762 8.9957771 -0.22203447
1.4055878 3.8956332 -1.6171837
3.2568328 9.0264206 0
1.511713 4.1897631 -1.6211755
3.2512052 9.0108232 0.22240587
1.6346849 4.5305839 -1.6274747
3.2607558 9.0372934 0.44803941
1.7812859 4.9368935 -1.6377155
3.261765 9.0400906 0.67203391
1.9379086 5.3709784 -1.6372859
3.2596474 9.0342216 0.89603573
1.9758943 5.4762568 -1.5240672
3.2718699 9.0680971 1.1273587
2.3328927 6.4656897 -1.6286707
3.0550747 8.4672413 1.2650836
2.4387121 6.7589717 -1.5273194
3.0523238 8.4596176 1.4775665
2.78895 7.7296677 -1.548242
3.0537701 8.463625 1.6952527
3.2599928 8.9616251 -1.5667328
3.260036 8.9617434 -1.340237
3.266397 8.979229 -1.1173698
3.261502 8.9657736 -0.89009064
3.2710962 8.9921474 -0.66910404
3.2721095 8.9949322 -0.44636244
3.2734156 8.9985228 -0.222313
1.416418 3.8936911 -1.6179113
3.2797675 9.0159845 0
1.5201061 4.1787271 -1.6184393
3.2788842 9.0135555 0.2226844
1.6471875 4.52807 -1.6281151
3.2748411 9.0024424 0.44673508
1.7948567 4.9340081 -1.6383113
3.2881472 9.0390205 0.67259192
1.9519622 5.3658867 -1.6372859
3.28669 9.0350142 0.89696455
1.9928693 5.4783387 -1.5260932
3.2983139 9.066968 1.128288
2.3538024 6.4705338 -1.6314374
3.0806155 8.4685211 1.2664753
2.4563975 6.7525644 -1.5273194
3.0778325 8.4608707 1.4791877
2.8078315 7.718646 -1.5475013
3.0786035 8.4629908 1.696734
3.2897627 8.9654551 -1.5690025
3.291188 8.9693384 -1.3427422
3.2928259 8.9738026 -1.1178344
3.2906408 8.9678478 -0.89120531
3.3003161 8.994216 -0.66994113
3.2999663 8.9932623 -0.44673508
3.3019736 8.9987326 -0.22254512
1.4279267 3.8914697 -1.6186388
3.3083751 9.0161781 0
1.532416 4.17623 -1.6191233
3.3081727 9.0156269 0.22296293
1.6604776 4.5252314 -1.6287552
3.3157952 9.0363998 0.44887796
1.8073115 4.9253917 -1.6371197
3.3168108 9.0391684 0.67328948
1.9682627 5.3640251 -1.6383885
3.3153358 9.0351477 0.89789349
2.0094917 5.4763846 -1.5271062
3.3263562 9.0651808 1.1292171
2.3671687 6.4511471 -1.6282097
3.1097085 8.4747601 1.268702
2.4765913 6.7493525 -1.528151
3.1048458 8.4615078 1.480809
2.8307278 7.7144656 -1.548242
3.1069624 8.4672766 1.699326
3.3206534 8.9624786 -1.5702995
3.3193479 8.9589558 -1.3427422
3.3265209 8.9783154 -1.1196928
3.3222549 8.9668016 -0.89213419
3.3334062 8.9968996 -0.67091775
3.3337543 8.997838 -0.44748047
3.334394 8.9995651 -0.22282365
1.4382025 3.8817241 -1.6164563
3.3422413 9.0207453 0
1.5448747 4.1696334 -1.6184393
3.3392565 9.0126896 0.2231486
1.6720518 4.512886 -1.6261944
3.3476362 9.035306 0.4493438
1.8234385 4.9214802 -1.6377155
3.3479631 9.0361881 0.67384756
1.9857713 5.3596182 -1.6389397
3.3471618 9.0340261 0.89882249
2.0280297 5.4736743 -1.5281192
3.3575776 9.0621376 1.1301464
2.3921554 6.4564528 -1.6314374
3.1349397 8.461236 1.2681454
2.4937036 6.7305326 -1.5256561
3.1368966 8.4665174 1.4834028
2.8556309 7.7073784 -1.5486122
3.1383259 8.4703751 1.7019181
3.3491251 8.9624128 -1.5719206
3.3485157 8.9607821 -1.3444123
3.3508875 8.9671288 -1.1194605
3.3514674 8.9686804 -0.89324892
3.3599172 8.991293 -0.67119682
3.3630667 8.9997206 -0.44803941
1.3649957 3.6527913 -1.6287975
3.3595152 8.9902172 -0.22282365
1.4522986 3.8864179 -1.6200936
3.3681216 9.0132484 0
1.5545402 4.1600208 -1.6163872
3.367914 9.0126925 0.22338071
1.687302 4.5152979 -1.6287552
3.3777525 9.0390215 0.44999596
1.8358399 4.9127917 -1.636524
3.376678 9.0361452 0.67454505
1.9940025 5.3360419 -1.633427
3.3744705 9.0302382 0.89937979
2.0460179 5.4752383 -1.5301453
3.3863504 9.0620289 1.1313078
2.3958721 6.4114642 -1.6217541
3.1613314 8.4598684 1.2692589
2.5152302 6.7308712 -1.5273194
3.1619112 8.4614201 1.4840513
2.878521 7.703054 -1.5493528
3.1640341 8.4671011 1.7030292
3.377794 8.9579754 -1.5728934
3.3722954 8.9433928 -1.3432989
3.380986 8.9664402 -1.120622
3.3801739 8.9642868 -0.89380628
3.3908062 8.9924841 -0.67203391
3.3918719 8.9953108 -0.44831896
1.381689 3.6642661 -1.6357352
3.3925266 8.9970474 -0.22324143
1.46251 3.8786049 -1.6186388
3.399792 9.0163145 0
1.5701929 4.1641822 -1.6198074
3.3981705 9.0120144 0.22361283
1.7006931 4.5102711 -1.6287552
3.4087889 9.0401745 0.45055497
1.8524307 4.9126821 -1.6383113
3.4062927 9.0335541 0.67510313
2.0091493 5.3283029 -1.6328758
3.4047644 9.0295019 0.90030873
2.0629385 5.470953 -1.5306517
3.4153285 9.057518 1.1320047
3.1864209 8.4504509 1.2692589
2.5358825 6.7252097 -1.5277352
3.1904869 8.4612341 1.4856726
2.9041398 7.7018356 -1.5508341
3.1926122 8.4668694 1.7048806
3.3671579 8.8501558 -1.5557086
3.3445816 8.7908163 -1.3218662
3.4096882 8.9619417 -1.1213189
3.4138317 8.9728317 -0.8956641
3.4203045 8.9898443 -0.67259192
3.4220927 8.994545 -0.4487848
1.3853338 3.6411774 -1.6272557
3.4241781 9.0000257 -0.2235664
1.475334 3.8777318 -1.6200936
3.430079 9.0155363 0
1.5812023 4.155993 -1.6184393
3.4298658 9.0149755 0.22393778
1.714065 4.5052061 -1.6287552
3.4384325 9.0374918 0.45092762
1.8649588 4.9018121 -1.636524
3.4422979 9.0476522 0.67691684
2.0283647 5.3313041 -1.6356323
3.4435728 9.0510025 0.90346706
2.0839746 5.4774675 -1.5341972
3.4485393 9.0640564 1.1340955
3.2192214 8.4613228 1.2723205
2.559299 6.726799 -1.5298144
3.2211866 8.4664879 1.4882665
2.9241781 7.6858382 -1.5493528
3.2184134 8.459199 1.7052509
3.3573344 8.7461596 -1.5391723
3.3458104 8.7161379 -1.3121241
3.4362664 8.9517841 -1.1213189
3.4497194 8.9868298 -0.89807928
3.4455354 8.9759312 -0.67231292
3.4559271 9.0030022 -0.44971645
1.3921641 3.6267133 -1.6226306
3.4537351 8.9972916 -0.22375208
1.488837 3.8785546 -1.6222761
3.4596829 9.0127859 0
1.5928539 4.149528 -1.6177552
3.464483 9.0252905 0.2244484
1.7267469 4.4983315 -1.6281151
3.4680984 9.0347099 0.45130029
1.8801799 4.8980384 -1.6371197
3.476995 9.0578861 0.67845148
2.0441756 5.3252616 -1.6356323
3.477551 9.0593348 0.90532488
2.1009123 5.4730663 -1.5347039
3.4804034 9.0667648 1.1357217
2.3182425 6.0392308 -1.5327581
3.2464442 8.4572802 1.2731557
2.5792484 6.7191749 -1.5298144
3.24771 8.460577 1.4889148
2.9476764 7.6789632 -1.5497233
3.2484307 8.4624548 1.7078429
3.3532522 8.6631308 -1.5262027
3.3444033 8.6402693 -1.3021038
3.4669902 8.9569721 -1.1231773
3.4762425 8.980876 -0.89845091
3.4749115 8.977437 -0.67315
3.4846632 9.0026312 -0.45018229
1.4042861 3.6279745 -1.6249431
3.4817364 8.9950695 -0.22393778
1.4989909 3.8726442 -1.6215485
3.4898942 9.0161448 0
1.6071503 4.1520743 -1.6204915
3.4940064 9.0267687 0.22472693
1.7365674 4.4864235 -1.625554
3.4983656 9.0380306 0.45195246
1.8966088 4.8998904 -1.6395026
3.5044391 9.0537224 0.67887002
2.0611222 5.3249106 -1.6372859
3.5042763 9.0533009 0.90569639
2.116888 5.4689822 -1.5352103
3.5092969 9.0662718 1.136883
3.2729108 8.4555683 1.274269
2.6015348 6.7210679 -1.5318935
3.2756009 8.4625177 1.4908603
2.9691112 7.670701 -1.5497233
3.276309 8.4643469 1.7100648
3.3559682 8.5943155 -1.5158269
3.3469703 8.5712719 -1.2931966
3.4921043 8.9429464 -1.1227127
3.5064938 8.9797974 -0.89937979
3.5051599 8.9763803 -0.67384756
3.5164444 9.0052795 -0.45083445
1.4163862 3.6272304 -1.626485
3.5120449 8.9940128 -0.22416987
1.5118291 3.8716507 -1.6230036
3.5202661 9.0150661 0
1.6201454 4.1490383 -1.6211755
3.5251358 9.0275373 0.22500546
1.755384 4.4953713 -1.6306759
3.5280714 9.0350552 0.45232511
1.9076656 4.8853498 -1.636524
3.5370905 9.0581522 0.67998606
2.0790091 5.3241444 -1.6389397
3.5354671 9.0539942 0.90681112
2.1359193 5.4698863 -1.5372362
3.5376251 9.0595207 1.1373477
2.3466172 6.0094628 -1.528608
3.3015852 8.4550447 1.2756608
2.6250219 6.7224312 -1.5339726
3.303565 8.4601154 1.4921573
2.9940004 7.6673503 -1.5508341
3.3042669 8.4619131 1.7115461
3.3532031 8.5169659 -1.50383
3.3447714 8.4955502 -1.2831761
3.5199733 8.9405546 -1.123642
3.5381205 8.9866476 -0.90105188
3.5324039 8.972127 -0.6742661
3.5437722 9.0010023 -0.45111394
1.4217767 3.6112409 -1.621089
3.5430055 8.9990549 -0.22454125
1.5205868 3.8622136 -1.6208211
3.5505543 9.0182285 0
1.6262169 4.1305089 -1.6157032
3.55619 9.0325422 0.22537683
1.7630709 4.4781108 -1.6261944
3.5423086 8.9972839 0.45092762
1.923398 4.8853335 -1.6383113
3.565294 9.0556669 0.68054414
2.0924594 5.3147411 -1.6378373
3.5629239 9.0496464 0.90736854
2.1533113 5.4693017 -1.5387558
3.5658195 9.0570011 1.1382769
2.3840637 6.0554013 -1.5419805
3.3288095 8.4550076 1.2770525
2.6466496 6.7223558 -1.5356358
3.3307908 8.4600401 1.4937786
3.0132389 7.6534743 -1.5497233
3.3314829 8.4617977 1.7133976
3.3536775 8.4488707 -1.4934543
3.3458335 8.4291096 -1.2745473
3.5419977 8.9233036 -1.1227127
3.5668786 8.9859848 -0.90198076
3.5633364 8.9770613 -0.67538214
3.5725822 9.0003538 -0.45157978
1.4325377 3.6089711 -1.6218598
3.5710752 8.9965582 -0.22472693
1.5313675 3.8579519 -1.6208211
3.5794165 9.0175714 0
1.6412132 4.1346846 -1.6191233
3.5828784 9.0262928 0.22546968
1.7825612 4.4907804 -1.6325966
3.5880606 9.0393486 0.45353627
1.9356257 4.8763933 -1.6371197
3.5935156 9.053091 0.68110222
2.1080039 5.3106632 -1.6383885
3.593327 9.0526161 0.90866899
2.171433 5.4704595 -1.5407817
3.5969636 9.0617781 1.1401354
2.4088643 6.0686169 -1.5470529
3.3560636 8.4548826 1.2784443
2.6683011 6.7222118 -1.5372993
3.3602302 8.4653788 1.4963725
3.0324266 7.6395483 -1.5486122
3.359453 8.4634209 1.7156194
3.3589232 8.3894148 -1.4846997
3.3502147 8.3676643 -1.2667537
3.5714099 8.9201317 -1.123642
3.5979638 8.986454 -0.90309542
3.5944037 8.9775629 -0.67621922
3.6022398 8.9971342 -0.45195246
1.4404949 3.5978522 -1.6187764
3.6036966 9.0007734 -0.22509831
1.5441917 3.8568504 -1.6222761
3.6083846 9.0124817 0
1.6541716 4.1315417 -1.6198074
3.6141012 9.0267601 0.22574821
1.7916512 4.4749179 -1.6287552
3.6200612 9.041646 0.45418844
1.9493752 4.8688569 -1.636524
3.6248083 9.053503 0.68193924
2.124465 5.30617 -1.6389397
3.6223896 9.0474615 0.9092263
2.1890919 5.4675856 -1.5417948
3.6282628 9.0621309 1.1415291
2.438432 6.0903497 -1.5544306
3.3833418 8.4504032 1.2792792
2.6904147 6.7197142 -1.5385467
3.3882654 8.4627008 1.4976695
3.0565395 7.6341662 -1.5493528
3.3882005 8.4625387 1.7174709
3.3815975 8.3781719 -1.4843755
3.3765326 8.3656225 -1.2678671
3.5910997 8.8972292 -1.1220158
3.62677 8.9856062 -0.90402436
3.6276729 8.9878426 -0.67775393
3.6318355 8.9981556 -0.45251146
1.4505359 3.5938158 -1.6187764
3.637048 9.0110703 -0.22560894
1.5535609 3.8490682 -1.6208211
3.6342852 9.0042248 0
1.6635916 4.1216779 -1.6177552
3.6400416 9.018487 0.22579463
1.8055582 4.4734111 -1.6300356
3.6408088 9.0203876 0.45362946
1.9643923 4.8669353 -1.6377155
3.6530619 9.050746 0.68249732
2.1392734 5.3002172 -1.6389397
3.6476393 9.0373106 0.9092263
2.2086961 5.4722166 -1.5448339
3.6565275 9.0593319 1.1424583
2.4452314 6.0582519 -1.5479751
3.4121141 8.4537792 1.2812277
2.7077036 6.7085466 -1.537715
3.4177923 8.4678469 1.5002635
3.0807879 7.6328921 -1.5508341
3.4169674 8.4658031 1.7200632
3.4049265 8.3601952 -1.4830786
3.4035468 8.3568077 -1.2681454
3.6152894 8.8767042 -1.1208543
3.6572375 8.9797001 -0.90458179
3.6604087 8.9874868 -0.67859101
3.6570745 8.9793005 -0.45213878
1.463212 3.5926585 -1.6203181
3.6713753 9.0144129 -0.22598031
1.5684572 3.8510697 -1.623731
3.6640663 8.9964676 0
1.6765332 4.1164308 -1.6177552
3.6691127 9.0088577 0.22584105
1.8181748 4.4642067 -1.6287552
3.6668708 9.0033531 0.45334995
1.9775134 4.8554344 -1.6359282
3.6875005 9.0540056 0.68361342
2.156641 5.2952504 -1.6394911
3.6782689 9.0313387 0.90978372
2.2273376 5.4688334 -1.5458468
3.6902177 9.0606775 1.1440845
2.4495723 6.014492 -1.5387527
3.4438872 8.4558563 1.2831761
2.7354088 6.7163124 -1.5414574
3.4466136 8.4625502 1.5012361
3.1025302 7.6177149 -1.5497233
3.4487383 8.4677677 1.7226553
3.4349639 8.3628359 -1.4853483
3.434345 8.3613291 -1.2703722
3.6431189 8.8696146 -1.1213189
3.6899154 8.9835463 -0.90606803
3.6931214 8.9913511 -0.67970705
3.6882529 8.9794989 -0.45269778
1.4738646 3.5883017 -1.6203181
3.6996229 9.0071802 -0.22607316
1.5791681 3.844676 -1.6230036
3.694541 8.9948072 0
1.691595 4.1183929 -1.6204915
3.7019019 9.0127287 0.22621243
1.8321314 4.460546 -1.6293954
3.7011569 9.0109148 0.45428163
1.9962624 4.8601427 -1.6395026
3.7166204 9.048563 0.68403202
2.1745329 5.2941637 -1.641145
3.7095869 9.0314388 0.91089845
2.2457583 5.4675708 -1.5473663
3.7208569 9.058877 1.1452459
2.4570541 5.9819956 -1.532297
3.473474 8.4565935 1.2848462
2.7560661 6.7099767 -1.5418732
3.4762044 8.4632406 1.5031816
3.1243701 7.606658 -1.5493528
3.4768326 8.4647703 1.7241364
3.5134397 8.4905825 -1.5096663
3.4607654 8.3632889 -1.2720423
3.6632876 8.852705 -1.1203897
3.7187502 8.9867353 -0.90736854
3.7204611 8.9908705 -0.68040466
3.7170942 8.9827337 -0.45334995
1.4804306 3.57761 -1.6172347
3.7285409 9.010396 -0.22639811
1.5899397 3.8422501 -1.623731
3.7241929 8.9998884 0
1.703089 4.1156869 -1.6211755
3.7285409 9.010396 0.22639811
1.8445264 4.4574847 -1.6300356
3.7254972 9.0030403 0.45437479
2.0082486 4.8531361 -1.638907
3.7471609 9.0553932 0.68528759
2.1876495 5.2866764 -1.6405936
3.7355011 9.027216 0.91145575
2.2637627 5.4706116 -1.5498989
3.7513945 9.0656242 1.1473366
2.4786584 5.9899282 -1.5359859
3.4978721 8.4529619 1.2856812
2.7803543 6.7190075 -1.5456157
3.5036299 8.466876 1.5054512
3.1457758 7.6020856 -1.5500935
3.5027378 8.4647198 1.7259879
3.7301426 8.9390965 -1.5913752
3.4863298 8.3548117 -1.2723205
3.6887753 8.839962 -1.1201574
3.7492349 8.9848499 -0.90829748
3.7525022 8.9926796 -0.68138123
3.7452714 8.9753523 -0.45353627
1.4903295 3.5714984 -1.6164639
3.7637315 9.0195904 -0.22690874
1.5998993 3.8340769 -1.6222761
3.7531929 8.9943352 0
1.716018 4.1123495 -1.6218594
3.7598817 9.0103645 0.22667664
1.8555565 4.4467463 -1.6281151
3.7560432 9.0011663 0.45484063
2.0211704 4.8436313 -1.6377155
3.778625 9.0552816 0.68612468
2.2040679 5.2819362 -1.641145
3.7684066 9.0307941 0.91294199
2.2822216 5.4692273 -1.5514184
3.7790442 9.0562859 1.1475689
2.4994197 5.9897318 -1.5378305
3.5275159 8.4535122 1.2873513
2.8032935 6.7179499 -1.547279
3.5317791 8.463728 1.5067482
3.1690767 7.5945306 -1.5504638
3.5285971 8.4561033 1.7263582
3.7566516 8.9279881 -1.5913752
3.7684288 8.9559774 -1.3655665
3.7111387 8.8198233 -1.1189959
3.7797413 8.9828625 -0.9092263
3.7822652 8.9888611 -0.68193924
3.7796369 8.9826145 -0.45446795
1.5030681 3.5721636 -1.6187764
3.7912552 9.0102262 -0.22695518
1.6134369 3.8344641 -1.6244584
3.7852955 8.9960623 0
1.7238399 4.0968456 -1.6177552
3.7866023 8.9991684 0.22667664
1.8687434 4.4412208 -1.6281151
3.787385 9.0010281 0.4553996
2.0340536 4.8340936 -1.636524
3.8078001 9.0495462 0.68654317
2.2174947 5.2700567 -1.6394911
3.7951877 9.0195723 0.91294199
2.3006918 5.4677811 -1.5529379
3.8120642 9.0596809 1.1494274
2.5202014 5.9894638 -1.539675
3.5564258 8.4521351 1.288743
2.8254919 6.7150111 -1.5485264
3.5607057 8.462306 1.5083694
3.1893115 7.5796585 -1.5493528
3.559772 8.4600878 1.7293206
3.783874 8.9229155 -1.5923479
3.8003769 8.961832 -1.3680718
3.7357478 8.8094273 -1.1189959
3.8094702 8.9832745 -0.91034102
3.8135777 8.9929609 -0.6830554
3.8085999 8.9812231 -0.45493379
1.5094327 3.5594578 -1.6149222
3.8218601 9.0124922 -0.22728013
1.6212265 3.8230839 -1.6215485
3.8127391 8.990984 0
1.7345372 4.0902867 -1.6170712
3.8202984 9.0088091 0.22718728
1.8826147 4.4394746 -1.6293954
3.8218596 9.0124912 0.45651761
2.0460508 4.8248801 -1.6353325
3.8377235 9.0499001 0.68738025
2.2352016 5.2709246 -1.6416962
3.8250189 9.0199404 0.91405672
2.3182142 5.4666805 -1.5544574
3.8404446 9.0563164 1.1503565
2.5429916 5.9967375 -1.5433638
3.5846481 8.4531126 1.290413
2.8457558 6.7106986 -1.549358
3.587399 8.4595995 1.5096663
3.2142973 7.5797725 -1.5512043
3.587214 8.4591627 1.7311722
3.8056731 8.905056 -1.5910509
3.8300562 8.9621105 -1.3697417
3.7579904 8.7934809 -1.118299
3.8392353 8.9835892 -0.91145575
3.8441627 8.9951191 -0.68403202
3.8462257 8.9999466 -0.45642444
1.5208167 3.5586233 -1.6164639
3.8509398 9.0109768 -0.22751223
1.6340921 3.8236814 -1.623731
3.8464758 9.0005312 0
1.7474294 4.0888839 -1.6184393
3.8580117 9.0275249 0.22793002
1.8957486 4.4359426 -1.6300356
3.8548622 9.020155 0.45744932
2.0610163 4.8226595 -1.636524
3.871604 9.05933 0.68891495
2.2514224 5.2681985 -1.6427988
3.8642771 9.0421858 0.91740084
2.3372717 5.4690814 -1.5569899
3.864938 9.0437317 1.1501243
2.5666099 6.0057192 -1.547514
3.6113517 8.4503546 1.2915266
2.8706336 6.7171173 -1.5526847
3.6156609 8.4604378 1.5116118
3.2354503 7.5707674 -1.5512043
3.6162279 8.4617653 1.7337643
3.8359809 8.8984909 -1.5920236
3.8621194 8.9591246 -1.3711334
3.7879632 8.7871017 -1.1189959
3.8721757 8.9824524 -0.91257042
3.8779378 8.99582 -0.68500859
3.8784418 8.9969893 -0.45689029
1.5319915 3.5538268 -1.6164639
3.8847771 9.0116854 -0.22783719
1.6431493 3.8116844 -1.6208211
3.8786981 8.9975834 0
1.7625012 4.0885501 -1.6204915
3.8919008 9.0282097 0.22825497
1.9111787 4.4334435 -1.6313162
3.8879325 9.0190048 0.45800832
2.0754046 4.8144054 -1.6359282
3.9032118 9.0544491 0.68947303
2.2641602 5.2522702 -1.6400423
3.8934598 9.031827 0.91758662
2.355978 5.4652634 -1.5580029
3.8964827 9.0388393 1.1510535
2.6078107 6.0494514 -1.5608864
3.6425922 8.4498777 1.2931966
2.8932757 6.7116561 -1.5535163
3.6445725 8.4544725 1.5125846
3.257668 7.556953 -1.5504638
3.648246 8.4629936 1.7363564
3.8623819 8.891366 -1.5926721
3.8926413 8.9610243 -1.3730819
3.8069408 8.7637377 -1.1173698
3.9012055 8.9807396 -0.91349936
3.9054229 8.990448 -0.68542707
3.9091175 8.9989529 -0.45754245
1.5426427 3.5512285 -1.6172347
3.9147015 9.0118074 -0.22811571
1.6545271 3.8087909 -1.6215485
3.9077878 8.9958916 0
1.7709138 4.0767183 -1.6177552
3.919481 9.02281 0.22839423
1.9205292 4.4211392 -1.6287552
3.9194655 9.0227747 0.45875365
2.0880773 4.8068419 -1.6353325
3.9324498 9.0526648 0.69017053
2.2780495 5.2441654 -1.6394911
3.9226279 9.030055 0.91851556
2.3719981 5.4604392 -1.5585093
3.930409 9.047967 1.1536088
2.6991274 6.2135048 -1.6051538
3.6716928 8.4523916 1.295145
2.9159 6.7125244 -1.5555954
3.6760252 8.4623642 1.5158269
3.2803199 7.5514345 -1.5512043
3.6749921 8.4599867 1.7378377
3.8839986 8.8690195 -1.5907266
3.9247758 8.9621334 -1.3750303
3.8353193 8.7578611 -1.1180667
3.9326303 8.9800692 -0.91461408
3.9392867 8.9952679 -0.68668276
3.9406118 8.9982939 -0.45810148
1.5531735 3.5466352 -1.6172347
3.9470396 9.0129719 -0.22844066
1.664327 3.8004515 -1.6200936
3.9368711 8.9897528 0
1.7852647 4.0766101 -1.6198074
3.9526546 9.0257931 0.22876562
1.93592 4.4206276 -1.6306759
3.9478242 9.0147638 0.45893994
2.1053951 4.8076196 -1.6377155
3.9632969 9.0500946 0.69086808
2.2966852 5.2444267 -1.6416962
3.9541986 9.0293188 0.91963023
2.391295 5.4604654 -1.5605354
3.9580369 9.038084 1.153841
2.7308247 6.2357736 -1.6129928
3.7023189 8.4541578 1.2970934
2.9412987 6.7163863 -1.5585061
3.703495 8.4568434 1.5167997
3.301136 7.5380664 -1.5504638
3.7055984 8.4616461 1.7404299
3.9118936 8.8610659 -1.5913752
3.9545522 8.957695 -1.3761437
3.8612902 8.7464409 -1.1180667
3.9624772 8.975646 -0.91535717
3.96999 8.9926634 -0.68738025
3.972137 8.9975271 -0.45866048
1.5622004 3.5386343 -1.6156931
3.9794202 9.0140247 -0.22876562
1.6786066 3.8023131 -1.6230036
3.9683762 8.9890079 0
1.7920407 4.0592594 -1.6150191
3.9842646 9.0249977 0.22904412
1.9474988 4.411397 -1.6293954
3.9826262 9.021287 0.45987165
2.1157966 4.7926183 -1.6347368
3.9949689 9.0492449 0.69170517
2.3099079 5.2323117 -1.6400423
3.9866045 9.0302982 0.92093074
2.4090505 5.4568853 -1.5615485
3.9920595 9.042654 1.1559318
2.7414567 6.2098393 -1.6083816
3.7305889 8.4503822 1.2982067
2.9604259 6.7058392 -1.5580903
3.7341528 8.4584541 1.5190694
3.3234899 7.5282373 -1.5504638
3.7362473 8.4631987 1.743022
3.934154 8.8404055 -1.589754
3.9867477 8.9585886 -1.3780922
3.8880305 8.736762 -1.118299
3.996376 8.9802246 -0.91702926
4.0007086 8.9899607 -0.68807787
4.0012503 8.9911776 -0.45893994
1.5734425 3.53567 -1.6164639
4.0093975 9.0094843 -0.22895129
1.6929101 3.8041246 -1.6259135
4.0031595 8.9954681 0
1.8071325 4.0607929 -1.6177552
4.0175271 9.0277529 0.22941552
1.9613485 4.4073305 -1.6300356
3.9971893 8.9820518 0.4584741
2.1331112 4.7932968 -1.6371197
4.0266662 9.0482893 0.69254225
2.3254213 5.2254357 -1.6400423
4.012569 9.0166111 0.92074496
2.4299498 5.4603205 -1.5645875
4.0212927 9.0362148 1.1566287
2.7598686 6.2016783 -1.6083816
3.7612803 8.4519424 1.3001552
2.9858758 6.7095375 -1.5610011
3.7648482 8.45996 1.5213391
3.3466096 7.5201397 -1.5508341
3.7669334 8.4646463 1.7456141
3.9597044 8.8354797 -1.5907266
4.0150461 8.9589663 -1.3797623
3.9084516 8.721117 -1.1176021
4.0255718 8.9824533 -0.91832978
4.0283089 8.9885597 -0.68877542
4.0321279 8.9970818 -0.45977849
1.5811833 3.5281706 -1.6149222
4.0395107 9.0135546 -0.22932266
1.6990533 3.7911794 -1.6222761
4.0373278 9.0086842 0
1.8215998 4.0646238 -1.6211755
4.0403285 9.0153799 0.2293691
1.9721045 4.4004521 -1.6293954
4.0443835 9.0244284 0.46117598
2.1456518 4.7876964 -1.6371197
4.0511551 9.0395374 0.69268179
2.3375201 5.2158213 -1.6389397
4.0605907 9.0605927 0.92631841
2.4481916 5.4627686 -1.56712
4.0595579 9.0582867 1.1608101
2.7792776 6.2015362 -1.610226
3.7842031 8.4438753 1.3004336
3.0066302 6.7088389 -1.5626644
3.7902102 8.4572792 1.5226359
2.7971992 6.2415257 -1.2886587
3.7930987 8.4637241 1.7474656
3.9811125 8.817194 -1.5894297
4.0449371 8.9585495 -1.3814323
3.9319715 8.7083578 -1.1173698
4.0481801 8.9657316 -0.91777235
4.0517507 8.9736404 -0.68849641
4.0613456 8.9948902 -0.4602443
1.5917886 3.5254238 -1.6156931
4.0679555 9.0095301 -0.22950836
1.7065663 3.7796285 -1.6193662
4.0682287 9.0101347 0
1.8298492 4.05267 -1.6184393
4.0679555 9.0095301 0.22950836
1.9789265 4.3828402 -1.6249138
4.080255 9.0367699 0.46238714
2.1590126 4.7816863 -1.6371197
4.078023 9.031827 0.6929608
2.3520756 5.2092738 -1.6389397
4.0834174 9.0437737 0.9257611
2.4666209 5.4629641 -1.5691459
4.0889235 9.0559683 1.1619717
2.7909777 6.1813354 -1.6069982
3.8151021 8.4495211 1.3029387
3.0293772 6.709332 -1.5647435
3.8194959 8.4592524 1.5249057
3.8231881 8.4674301 1.7504281
4.0087914 8.8046436 -1.5894297
4.0788045 8.958416 -1.3833808
3.9576619 8.6923466 -1.1169051
2.8138194 6.1800871 -0.63352305
4.0848808 8.9717627 -0.6893335
4.0962052 8.9966345 -0.46098965
1.601326 3.5170467 -1.6141514
4.1020374 9.0094442 -0.2298333
1.7199752 3.7776399 -1.6208211
4.1039715 9.0136919 0
1.8472438 4.0571642 -1.6225436
4.0995522 9.0039845 0.22969405
2.0021067 4.397295 -1.6325966
4.1127625 9.032999 0.46285298
2.1724408 4.7714052 -1.6359282
4.1121631 9.031683 0.69393742
2.3700216 5.205359 -1.6400423
4.105206 9.0164032 0.92427486
2.4861755 5.4604712 -1.5706655
4.1280522 9.0665808 1.1649916
2.8103821 6.1725373 -1.6069982
3.8498333 8.4555187 1.3057221
3.0569241 6.714026 -1.5680701
3.8525939 8.4615822 1.5274997
2.8341856 6.2248178 -1.2886587
3.8530266 8.462533 1.7519093
4.033968 8.786622 -1.5884569
4.1110663 8.9545546 -1.3847725
2.8448577 6.1965513 -0.63612407
4.1180472 8.9697599 -0.69017053
4.128623 8.9927959 -0.46145546
1.6146798 3.517029 -1.6164639
4.1361675 9.0092297 -0.23015825
1.733392 3.7756026 -1.6222761
4.1364479 9.00984 0
1.8560629 4.0427995 -1.6191233
4.1353331 9.007412 0.23011184
2.016705 4.3927035 -1.6332369
4.1477952 9.0345564 0.46359831
2.1906099 4.7714958 -1.6383113
4.1438527 9.0259686 0.69449544
2.385565 5.1961389 -1.6394911
4.1567822 9.0541315 0.9294768
2.5041294 5.454391 -1.571172
4.157351 9.0553703 1.1652238
2.8281405 6.1601386 -1.606076
3.8772106 8.4451799 1.3060005
3.0812714 6.7114983 -1.5697334
3.8849277 8.4619884 1.5297694
2.8873537 6.289114 -1.3038411
3.8861599 8.464673 1.7548717
4.0570755 8.780324 -1.5891054
2.9101028 6.2980452 -0.6472711
4.1466417 8.9741631 -0.69128668
4.1589589 9.0008192 -0.46238714
1.6232666 3.5130739 -1.6164639
4.1640344 9.0118036 -0.2304832
1.7394842 3.7645922 -1.6193662
4.1634784 9.010601 0
1.8627801 4.0314293 -1.6163872
4.1606798 9.0045433 0.23029754
2.0226612 4.3774438 -1.6293954
4.1706905 9.0262089 0.46369147
2.2006576 4.7626634 -1.6371197
4.1717472 9.0284967 0.695472
2.3974445 5.18855 -1.6389397
4.1822286 9.0511799 0.93021995
2.522315 5.4587951 -1.5742109
4.1869583 9.0614157 1.1673145
2.8399148 6.1461444 -1.6042315
3.9036446 8.4482679 1.3079489
3.102581 6.7146068 -1.5722283
3.907243 8.4560566 1.5304178
2.9191964 6.3177252 -1.3112472
3.9117725 8.4658585 1.7570935
4.080471 8.7585917 -1.5874842
2.8579211 6.1344299 -0.95110899
2.9243572 6.2770329 -0.80980271
2.9281912 6.2852621 -0.64689946
4.1815534 8.9755611 -0.69240278
4.191432 8.9967651 -0.46285298
1.6358533 3.5113032 -1.6180056
4.1982336 9.0113649 -0.23080815
1.7520884 3.7607977 -1.6200936
4.1993651 9.013793 0
1.8770224 4.0289645 -1.6177552
4.1957011 9.005928 0.2306689
2.0364025 4.3710685 -1.6293954
4.1948066 9.0040083 0.46322563
2.2139955 4.7522655 -1.6359282
4.2076721 9.0316238 0.69672769
2.4145441 5.1827364 -1.6394911
4.2064366 9.0289726 0.92929101
2.5427194 5.45786 -1.5762371
4.2221146 9.062624 1.169173
2.8493462 6.116024 -1.5986981
3.9368556 8.450326 1.3101757
3.1253111 6.7083735 -1.57306
3.9396217 8.4562626 1.5326874
2.8717985 6.164217 -1.2812526
3.9449878 8.4677811 1.7600559
4.1005721 8.7339401 -1.5852146
2.8474939 6.0649686 -0.94164526
2.9311514 6.2431536 -0.8065505
2.9468288 6.2765455 -0.64689946
4.2132559 8.9739494 -0.69323987
4.2232046 8.9951391 -0.46341199
1.645481 3.5047629 -1.6172347
4.2292042 9.0079174 -0.23104027
1.7656157 3.7606416 -1.6222761
4.2311935 9.0121555 0
1.8897684 4.0250783 -1.6184393
4.2283545 9.0061083 0.23099385
2.0453379 4.356431 -1.6261944
4.2266006 9.0023718 0.46378464
2.2313333 4.7525887 -1.6383113
4.2429323 9.037158 0.6981228
2.4274614 5.1703277 -1.6378373
4.2408271 9.0326738 0.93096304
2.563015 5.4590478 -1.5787694
4.2498322 9.0518541 1.1694053
2.8319178 6.0317926 -1.5788701
3.9678054 8.4511566 1.3121241
3.150192 6.7096953 -1.575555
3.9714069 8.458827 1.5352814
2.874207 6.1218657 -1.2742168
3.9709327 8.4578171 1.7604262
2.9443376 6.2288003 -1.1319256
2.8151166 5.955431 -0.92577958
2.9232519 6.1841931 -0.63816768
4.247818 8.9863367 -0.69505352
4.2535682 8.9985018 -0.46415731
1.6538616 3.4987748 -1.6164639
4.2604613 9.0130844 -0.23145805
1.7754544 3.7560065 -1.6222761
4.2616091 9.0155134 0
1.900299 4.0201173 -1.6184393
4.2655883 9.0239305 0.23173659
2.0632133 4.3647656 -1.6313162
4.2629595 9.0183697 0.46518213
2.242135 4.743278 -1.6371197
4.2793651 9.0530758 0.70021546
2.4434531 5.1691699 -1.6394911
4.2746706 9.0431452 0.93319249
2.5806046 5.4593163 -1.5807955
4.2769094 9.0478811 1.1703345
3.9975333 8.4568558 1.3146292
3.1652381 6.6961198 -1.5743074
3.9994411 8.4608917 1.537551
2.9053419 6.1463041 -1.2808822
4.0022998 8.466939 1.7644997
2.8559666 5.9930425 -0.93301654
2.966207 6.2243743 -0.80631822
2.9178238 6.1228456 -0.6327799
4.2846136 8.9909563 -0.69644862
4.2869759 8.9959135 -0.46471632
1.6640524 3.4918954 -1.6156931
4.2939191 9.0104837 -0.23173659
1.786445 3.7487278 -1.6215485
4.2942157 9.0111065 0
1.9121116 4.0124302 -1.6177552
4.3016605 9.0267286 0.2321544
2.0736561 4.3514194 -1.6287552
4.2998676 9.0229664 0.46611381
2.2586699 4.7396579 -1.6383113
4.3120794 9.0485916 0.70091301
2.462163 5.1666737 -1.641145
4.3039188 9.0314674 0.93337822
2.5994089 5.4546742 -1.5818086
4.3078794 9.0397787 1.1710315
2.862426 6.006597 -1.5765644
4.0257883 8.4478302 1.3151859
2.8908627 6.0662694 -1.4283534
4.0310984 8.4589729 1.5394965
4.0322638 8.4614182 1.7659807
2.8812599 6.0028992 -0.93580002
2.9431763 6.131897 -0.79540002
2.95559 6.1577606 -0.63723874
4.3174729 8.9951458 -0.69770426
4.3181305 8.9965153 -0.46536848
1.6753935 3.4905624 -1.6172347
4.325119 9.0110769 -0.23206154
1.7993243 3.7487633 -1.623731
4.3262844 9.013504 0
1.9216819 4.0036869 -1.6163872
4.3320408 9.0254974 0.23243293
2.0882583 4.3507366 -1.6306759
4.3181305 8.9965153 0.46536848
2.2735479 4.7367744 -1.6395026
4.3433723 9.0491056 0.70188963
2.4765804 5.1597781 -1.641145
4.3334293 9.0283909 0.93430716
2.6179788 5.4543715 -1.5838345
4.3374023 9.0366678 1.1721928
2.8775029 5.9950714 -1.5756421
4.0536466 8.4454823 1.3165776
4.0598269 8.4583588 1.5414419
2.9698296 6.187427 -1.2931023
4.0618286 8.4625292 1.7685728
2.8405347 5.8759351 -1.0722651
2.8790472 5.9556017 -0.92967641
2.920517 6.0413866 -0.78471416
4.3460469 8.9902401 -0.69826227
4.3484521 8.9952154 -0.46592748
1.6851338 3.4858706 -1.6172347
4.3572264 9.0133657 -0.23243293
1.8073527 3.7386928 -1.6215485
4.3566594 9.0121927 0
1.9361259 4.0050735 -1.6191233
4.363318 9.0259666 0.23275788
2.0995743 4.343183 -1.6300356
4.3614945 9.0221949 0.46732497
2.2809491 4.7183752 -1.6353325
4.3755703 9.0513124 0.70300573
2.4926519 5.1563044 -1.6422474
4.3655562 9.0305977 0.9357934
2.6357255 5.4522662 -1.5853541
4.3764524 9.0531368 1.1759098
2.878139 5.9537234 -1.5668809
4.0866952 8.4537449 1.3196394
2.9000039 5.9989529 -1.4162946
4.0920196 8.4647579 1.5446844
2.9391923 6.0800185 -1.2723652
4.0862989 8.4529247 1.7689433
2.8354888 5.8213496 -1.0638349
2.8993087 5.952374 -0.93051142
2.9105949 5.9755454 -0.77728051
2.9029348 5.9598184 -0.6184746
4.3788209 8.9898596 -0.6992389
4.3821235 8.9966412 -0.46667281
1.6962786 3.4825144 -1.6180056
4.3900819 9.0129795 -0.23275788
1.8184388 3.7333133 -1.6215485
4.3886375 9.0100145 0
1.945533 3.9942417 -1.6170712
4.3935843 9.0201702 0.23294355
2.1107934 4.3335266 -1.6287552
4.393497 9.0199909 0.467884
2.2982843 4.7184515 -1.6377155
4.4076519 9.0490513 0.70384282
2.5045743 5.1419716 -1.6400423
4.3975668 9.0283461 0.93690813
2.6569765 5.4548578 -1.5883931
4.4076467 9.0490398 1.1770713
2.8787491 5.9101648 -1.5576586
4.1160994 8.4504843 1.3210312
2.9280722 6.0114264 -1.4212844
4.1197119 8.457901 1.5456572
4.1208305 8.4601984 1.7730166
2.8395674 5.7886024 -1.0592955
2.9481945 6.0100441 -0.9408102
2.8957772 5.9031892 -0.76891768
2.9099207 5.9320211 -0.61643094
4.409183 8.9883432 -0.70007598
4.4133916 8.9969225 -0.46732497
1.7100616 3.4860473 -1.6218598
4.4205203 9.0114546 -0.23303641
1.828858 3.7282202 -1.6215485
4.4234729 9.0174742 0
1.9550253 3.9854183 -1.6157032
4.4275646 9.025815 0.23340778
2.1262259 4.3344197 -1.6313162
4.4195509 9.0094786 0.46797714
2.312294 4.7137289 -1.6383113
4.4416938 9.0546188 0.70523798
2.5180786 5.1332312 -1.6394911
4.4315338 9.0339069 0.938766
2.6756086 5.4543643 -1.5904191
4.4433999 9.0580969 1.1798589
2.8901014 5.8916183 -1.5548918
4.1457891 8.4514017 1.3229796
2.9913743 6.0980687 -1.4437389
4.1502705 8.460537 1.548251
2.8780849 5.8671222 -1.2312615
4.1505013 8.4610081 1.7756087
2.8533638 5.7708077 -1.0576743
