# .PCD v0.7 - Point Cloud Data file format
VERSION 0.7
FIELDS x y z
SIZE 4 4 4
TYPE F F F
COUNT 1 1 1
WIDTH 1530
HEIGHT 1
VIEWPOINT 0 0 0 1 0 0 0
POINTS 1530
DATA ascii
4.4145861 -6.3541236 -1.6445816
4.9902749 -7.1827397 -1.6478537
5.7870121 -8.3793612 -1.6730839
6.7034101 -9.7062683 -1.6578301
8.1774387 -11.840603 -1.6827915
10.46989 -15.159979 -1.7188725
0.47254881 -0.6842317 -0.39360473
10.998808 -15.925832 -1.3534151
2.0599663 -2.9827487 -1.6139311
12.898321 -18.67625 -1.0584688
2.1929147 -3.1752522 -1.6118388
12.915677 -18.701382 -0.52767426
2.3513656 -3.4046829 -1.6157289
12.914611 -18.699839 0
2.5247686 -3.6557636 -1.6170712
12.940675 -18.737577 0.52869552
2.7263105 -3.9475882 -1.6210724
12.947139 -18.746937 1.0624748
2.966269 -4.2950382 -1.6287793
12.544151 -18.163427 1.5435712
3.234956 -4.6840863 -1.6323246
3.5634747 -5.1597681 -1.6415759
12.537085 -18.153194 2.5799396
3.9337888 -5.6959682 -1.6401987
4.4046073 -6.3776946 -1.6474924
4.9735479 -7.2014976 -1.6489646
5.7610083 -8.3948679 -1.6727597
6.6700983 -9.7195826 -1.6567167
8.1523867 -11.879554 -1.6848822
10.405707 -15.163064 -1.7157142
0.47153947 -0.68712127 -0.39446038
10.696374 -15.586619 -1.3218852
2.0469723 -2.9828217 -1.6106772
12.805545 -18.660076 -1.0553942
2.1813953 -3.1787014 -1.6102971
12.832979 -18.700054 -0.52656013
2.3412533 -3.4116445 -1.6157289
12.831911 -18.698496 0
2.5117841 -3.6601398 -1.6157032
12.85108 -18.726431 0.52730286
2.7167301 -3.9587843 -1.6223528
12.865459 -18.747383 1.0603321
2.9545927 -4.3053946 -1.629375
12.473271 -18.175892 1.5414786
3.225395 -4.7000046 -1.6345296
3.5470548 -5.1687226 -1.6410694
12.486538 -18.195223 2.5806363
3.9124668 -5.7011962 -1.6383543
4.3779163 -6.3794436 -1.6445816
4.946599 -7.2081213 -1.6471132
5.735673 -8.4050303 -1.6717869
6.6457462 -9.7386475 -1.6569951
8.1111803 -11.886089 -1.6827915
10.349137 -15.165581 -1.7129275
0.46770102 -0.68536711 -0.39274907
10.609423 -15.547003 -1.3161651
2.0412157 -2.9911888 -1.6123041
12.733001 -18.658884 -1.0534377
2.1709855 -3.1813529 -1.6087555
12.759183 -18.697252 -0.52553886
2.3312635 -3.4162235 -1.6150012
12.762621 -18.70229 0
2.5064304 -3.6729124 -1.6184393
12.771582 -18.71542 0.52604949
2.7084925 -3.9690135 -1.6236333
12.803946 -18.762848 1.0593072
2.944387 -4.314692 -1.6299707
12.399778 -18.170582 1.5382699
3.2065773 -4.6989045 -1.6312219
3.5346014 -5.1795897 -1.6415759
12.450057 -18.244261 2.5829594
3.9052062 -5.7226725 -1.6415821
4.3634052 -6.3941154 -1.6454133
4.9288187 -7.2226696 -1.6474835
5.7070255 -8.4197407 -1.6711384
6.618453 -9.7643967 -1.6578301
8.0760298 -11.914802 -1.683256
10.286919 -15.176591 -1.7105123
0.46655986 -0.68832934 -0.39360473
10.562769 -15.583561 -1.3164443
2.0318086 -2.9975867 -1.6123041
12.650781 -18.664066 -1.0514811
2.1609805 -3.1881576 -1.6087555
12.676824 -18.702488 -0.52456397
2.3247008 -3.4296989 -1.6179113
12.677996 -18.704216 0
2.4885528 -3.6714344 -1.6143351
12.684676 -18.714073 0.52488893
2.6896319 -3.9680924 -1.619792
12.718038 -18.763292 1.0570712
2.9233193 -4.3128581 -1.6258005
12.319124 -18.174763 1.53534
3.1971931 -4.7169123 -1.6339784
3.5183122 -5.1906686 -1.6415759
12.397139 -18.28986 2.5838885
3.886117 -5.7333016 -1.641121
11.830096 -17.453285 2.963274
4.3400035 -6.4029341 -1.6441659
4.9138231 -7.2495065 -1.6500757
5.6845932 -8.4372826 -1.6714627
6.5778794 -9.7631311 -1.65449
8.0416145 -11.93566 -1.6830237
10.218904 -15.167273 -1.7062391
0.45958546 -0.68213362 -0.38932639
10.504716 -15.591486 -1.3146305
2.0244505 -3.0047641 -1.6131176
12.586332 -18.681097 -1.0504564
2.1582561 -3.2033629 -1.6133806
12.603318 -18.706308 -0.523682
2.3140731 -3.4346325 -1.6171837
12.593306 -18.691446 0
2.4835408 -3.6861625 -1.6177552
12.620077 -18.731182 0.5243783
2.6859512 -3.9865875 -1.6242737
12.64438 -18.767252 1.0553011
2.9144642 -4.3257551 -1.6275877
12.246027 -18.176004 1.5325497
3.1850824 -4.7274165 -1.6345296
3.5005598 -5.1956596 -1.6400564
12.352674 -18.334293 2.5852823
3.8733535 -5.7489738 -1.6425045
11.762497 -17.45833 2.9585421
4.3221059 -6.4150286 -1.6441659
4.8858719 -7.2517905 -1.6474835
5.6610103 -8.453124 -1.6714627
6.5660191 -9.8044996 -1.6583868
8.0082531 -11.958071 -1.6830237
10.158781 -15.169278 -1.7032666
0.45466113 -0.67890829 -0.38675943
10.482229 -15.652258 -1.3172812
2.0150354 -3.0088878 -1.6123041
12.509659 -18.679651 -1.0484067
2.1523829 -3.2139776 -1.6156931
12.525443 -18.70322 -0.5226143
2.3044729 -3.4410813 -1.6171837
12.513238 -18.684996 0
2.4701004 -3.6883991 -1.6157032
12.543243 -18.729801 0.52335703
2.6769168 -3.9972212 -1.625554
12.565243 -18.762651 1.0530651
2.9034355 -4.335463 -1.6281834
12.167468 -18.168686 1.529062
3.170799 -4.7346954 -1.6339784
3.4838839 -5.202199 -1.6390433
12.312482 -18.385223 2.5876055
3.8572843 -5.7597675 -1.6425045
11.691657 -17.458197 2.952975
4.3085294 -6.4335752 -1.6458291
4.8666959 -7.2670393 -1.6478537
5.6359043 -8.469883 -1.6714627
6.5303159 -9.814044 -1.6567167
7.9760385 -11.986739 -1.6837206
10.094974 -15.171167 -1.7001083
0.45164335 -0.67874932 -0.38590378
10.486584 -15.759696 -1.3236989
2.0050867 -3.0133319 -1.6114906
12.42319 -18.670113 -1.0457981
2.1367033 -3.2111311 -1.611068
12.449957 -18.710339 -0.5217787
2.295285 -3.4494545 -1.6179113
12.442232 -18.69873 0
2.4643512 -3.7035346 -1.6191233
2.6608465 -3.9988363 -1.6229931
12.486276 -18.764921 1.0511086
2.8863285 -4.3377004 -1.6258005
12.098033 -18.181452 1.5271087
3.1578019 -4.7456827 -1.6345296
3.4737926 -5.2205672 -1.6415759
12.253475 -18.415058 2.5866761
3.8347871 -5.7630854 -1.6401987
11.62335 -17.468077 2.9488001
4.2872539 -6.4430728 -1.6449974
4.8385801 -7.2716293 -1.6456319
5.6070914 -8.4842539 -1.6708142
6.4961772 -9.8295555 -1.6558818
7.9383416 -12.011738 -1.6837206
10.028599 -15.174566 -1.6969501
10.464521 -15.834174 -1.3271867
1.9966177 -3.0211406 -1.6123041
12.336939 -18.667383 -1.0434688
2.1286395 -3.2209067 -1.6126096
12.366862 -18.712662 -0.52075744
2.285464 -3.4582026 -1.6186388
12.366886 -18.712698 0
2.4433782 -3.6971474 -1.6129669
2.6524494 -4.0134988 -1.625554
12.407435 -18.774055 1.0494316
2.8832135 -4.3626752 -1.631758
12.012255 -18.176094 1.5234814
3.1439373 -4.7571836 -1.6350808
3.4616416 -5.2379112 -1.6436019
12.20542 -18.468378 2.5887668
3.8198822 -5.7799754 -1.6415821
11.547667 -17.473112 2.9435115
4.2723846 -6.4646707 -1.6470766
4.8167953 -7.2884336 -1.6460022
5.5818934 -8.5008535 -1.6708142
6.4691577 -9.8520975 -1.6564384
7.901577 -12.033577 -1.6834882
9.9715071 -15.185944 -1.6949064
10.456918 -15.925192 -1.3322092
1.986642 -3.0255239 -1.6114906
12.259566 -18.670506 -1.0416055
2.1210995 -3.2302938 -1.6141514
12.288239 -18.714174 -0.5197826
2.2762158 -3.4665258 -1.6193662
12.289355 -18.715874 0
2.4313664 -3.7028098 -1.612283
2.6322098 -4.0086808 -1.6204321
12.326455 -18.772373 1.0472887
2.8713048 -4.3728065 -1.6323538
11.939656 -18.183304 1.5211097
3.1298087 -4.7664909 -1.6350808
3.4428992 -5.2433071 -1.6420823
12.152751 -18.507833 2.5892315
3.8027158 -5.7912836 -1.6415821
11.474031 -17.474188 2.9379444
4.2478161 -6.469142 -1.6449974
4.7951488 -7.3026934 -1.6460022
5.5600266 -8.5128145 -1.67049
6.4483151 -9.8728504 -1.6572734
7.8667197 -12.044534 -1.6823269
9.913682 -15.178585 -1.6913764
10.413611 -15.944014 -1.3316511
1.9802427 -3.031899 -1.6123041
12.202985 -18.683678 -1.0406739
2.1132002 -3.235467 -1.6141514
12.208582 -18.692249 -0.51834351
2.2667203 -3.4705174 -1.6186388
12.220621 -18.710682 0
2.4295056 -3.719754 -1.6170712
12.233729 -18.730749 0.51941121
2.6203346 -4.0119271 -1.6191516
12.256516 -18.76564 1.0452391
2.8574796 -4.3750138 -1.6305665
11.872281 -18.177347 1.51818
3.1181529 -4.7741241 -1.6350808
3.4290197 -5.2500844 -1.6415759
12.100974 -18.527493 2.5878377
3.7853613 -5.79567 -1.6401987
11.407475 -17.465693 2.9318209
4.2384152 -6.4893293 -1.6474924
4.768693 -7.3012242 -1.6430398
5.5289583 -8.5236168 -1.6691929
6.4118767 -9.8847523 -1.6558818
7.8353267 -12.079187 -1.6837206
9.8475246 -15.181255 -1.6882182
1.9746848 -3.0442364 -1.615558
12.120308 -18.685049 -1.0386242
2.1000123 -3.2374451 -1.6118388
12.12477 -18.691929 -0.51727581
2.248709 -3.4666808 -1.6135464
12.14001 -18.715424 0
2.4167848 -3.7257917 -1.6163872
12.144356 -18.722122 0.51811141
2.6139045 -4.0296774 -1.6229931
12.165971 -18.755445 1.0425372
2.8426814 -4.3823676 -1.6299707
11.792313 -18.179401 1.5152501
3.1083701 -4.7919612 -1.6378373
3.4146144 -5.2640777 -1.642589
12.025411 -18.538754 2.584121
3.7713709 -5.8140645 -1.6420432
11.336379 -17.476521 2.9276457
4.2180071 -6.5026126 -1.6474924
4.7532187 -7.3277125 -1.6456319
5.5104823 -8.5473166 -1.6708142
6.382103 -9.8992891 -1.6553251
7.7940316 -12.089334 -1.6820945
9.7899876 -15.185264 -1.6856171
10.329625 -16.022297 -1.3330462
1.9651864 -3.0482035 -1.6147445
12.048598 -18.688599 -1.0369471
2.0929637 -3.2463989 -1.6133806
12.054109 -18.697145 -0.51648664
2.2359912 -3.4682493 -1.6113639
12.06386 -18.712271 0
2.4104445 -3.7388439 -1.6191233
12.084445 -18.7442 0.51778644
2.6067481 -4.0433311 -1.625554
12.090817 -18.754084 1.0405807
2.8293986 -4.3886843 -1.629375
11.719881 -18.178724 1.5124599
3.0856009 -4.7860799 -1.6328758
12.16492 -18.869024 2.0945275
3.3978047 -5.27034 -1.6415759
11.960679 -18.552227 2.5813332
3.7551208 -5.8245735 -1.6420432
11.262851 -17.469824 2.9212437
4.2008924 -6.5160103 -1.6479082
4.730608 -7.3376532 -1.6448914
5.4802032 -8.552701 -1.6688688
6.3640499 -9.9320803 -1.6578301
7.7720294 -12.129449 -1.6846498
9.732502 -15.189068 -1.6830162
10.256856 -16.007404 -1.3294189
1.9556806 -3.052141 -1.6139311
11.975883 -18.69021 -1.035177
2.0838897 -3.2522309 -1.6133806
11.99214 -18.715582 -0.51606888
2.2303176 -3.4807541 -1.6142738
11.989977 -18.712206 0
2.3959384 -3.7392311 -1.6163872
12.005085 -18.735785 0.51662594
2.5913579 -4.0442133 -1.6229931
12.028697 -18.772635 1.0397422
2.8222821 -4.4046059 -1.6323538
11.649695 -18.181145 1.5099487
3.0825956 -4.8108654 -1.6383885
12.116477 -18.90963 2.0952706
3.3830738 -5.2798076 -1.6415759
11.890605 -18.557121 2.577384
3.7472403 -5.8481455 -1.6457322
11.196923 -17.474524 2.91679
4.1805687 -6.5244217 -1.6470766
4.7164612 -7.3607645 -1.6471132
5.4548025 -8.568924 -1.6688688
6.3388071 -9.9576025 -1.6589435
7.7253389 -12.135699 -1.6823269
9.6670732 -15.185961 -1.6794863
10.210387 -16.03945 -1.3295584
1.9466162 -3.0579302 -1.6139311
11.896772 -18.688585 -1.0331273
2.0742309 -3.2583997 -1.6133806
11.914009 -18.71566 -0.51509398
2.2169788 -3.4826417 -1.6120914
11.910775 -18.710581 0
2.3797872 -3.7383964 -1.6129669
11.926894 -18.735903 0.51565105
2.5793471 -4.0518842 -1.6229931
11.951488 -18.774536 1.0378789
2.8020236 -4.4016857 -1.6281834
11.574271 -18.181969 1.5071584
3.0600488 -4.8070164 -1.6339784
3.3642762 -5.2849259 -1.6400564
11.823758 -18.573887 2.5748289
3.7246463 -5.8510294 -1.6434265
11.122691 -17.472584 2.9109447
4.1569896 -6.5301957 -1.6454133
4.7030435 -7.387989 -1.6500757
5.434629 -8.5934114 -1.67049
6.300765 -9.9629745 -1.6567167
7.6946063 -12.166961 -1.6834882
9.6060085 -15.189332 -1.6766996
11.421099 -18.059412 -1.4941837
1.9336283 -3.0575156 -1.6106772
11.823117 -18.695097 -1.0315435
2.064554 -3.2645395 -1.6133806
11.838121 -18.718821 -0.51421201
2.2076316 -3.4907787 -1.6128188
11.840241 -18.722174 0
2.3767209 -3.7581482 -1.6184393
11.858426 -18.750927 0.51509398
2.5703518 -4.0643234 -1.6249138
11.873305 -18.774454 1.0359223
2.7869105 -4.4067531 -1.626992
11.500012 -18.184193 1.5045077
3.0468001 -4.817699 -1.6345296
3.3516834 -5.2997904 -1.6415759
11.756918 -18.59042 2.5722735
3.703109 -5.8554759 -1.6415821
11.045395 -17.465336 2.9042647
4.1396871 -6.5458078 -1.6462449
4.6832032 -7.4052329 -1.6508162
5.3975577 -8.591116 -1.6669233
6.2764444 -9.9900103 -1.6581085
7.6658692 -12.201512 -1.6851144
9.5418282 -15.187415 -1.6733553
1.9264916 -3.0663335 -1.6123041
11.749526 -18.701336 -1.0299597
2.0568221 -3.2737761 -1.6149222
11.764445 -18.725082 -0.51342285
2.1942911 -3.4925811 -1.6106364
11.766552 -18.728434 0
2.3665593 -3.7667749 -1.6191233
2.5613053 -4.0767455 -1.6268345
11.784599 -18.75716 1.0330342
2.7758541 -4.4182358 -1.6281834
11.427963 -18.189514 1.5021359
3.0304463 -4.823462 -1.633427
3.3390315 -5.3146267 -1.6430954
11.687967 -18.603354 2.5692537
3.6919308 -5.8763251 -1.6443489
10.977719 -17.472876 2.9000893
4.1233692 -6.5630312 -1.6474924
4.6612105 -7.419096 -1.6508162
5.3777275 -8.6128511 -1.6682203
6.2527194 -10.014219 -1.6592219
7.6212463 -12.206022 -1.6827915
9.485671 -15.192043 -1.6709403
10.039386 -16.078861 -1.3255125
1.9198569 -3.074801 -1.6139311
11.675037 -18.698486 -1.0280031
2.0447397 -3.2748106 -1.6126096
11.69093 -18.72394 -0.51249439
2.1874897 -3.5034356 -1.6128188
11.686666 -18.717112 0
2.3520501 -3.7669921 -1.6163872
11.700461 -18.739204 0.51291221
2.5489075 -4.0822744 -1.6261944
11.714187 -18.761187 1.0314503
2.7675505 -4.4324484 -1.6305665
11.354935 -18.185816 1.4992061
3.0179837 -4.8335371 -1.6339784
3.3221278 -5.3206472 -1.6420823
11.615983 -18.603905 2.5648398
3.6734452 -5.8833098 -1.6434265
10.911053 -17.474903 2.8953574
4.1039901 -6.5728607 -1.6470766
4.6425562 -7.4354167 -1.6515567
5.3527236 -8.6330566 -1.6688688
6.2191415 -10.030446 -1.6586651
7.5860038 -12.234968 -1.6834882
9.4200592 -15.192996 -1.6677819
11.326136 -18.267181 -1.502973
1.9053741 -3.0730529 -1.6098638
11.587815 -18.689228 -1.0254877
2.0354147 -3.2827868 -1.6133806
11.61098 -18.726587 -0.51156598
2.1745095 -3.5071237 -1.6113639
11.600409 -18.709538 0
2.3411949 -3.7759597 -1.6170712
11.629945 -18.757175 0.51240152
2.5300796 -4.0805998 -1.6223528
11.635189 -18.765635 1.0296803
2.7485819 -4.4330077 -1.6275877
11.279876 -18.192572 1.4968344
3.0088627 -4.8527975 -1.6372859
3.3043773 -5.3294134 -1.6415759
11.545968 -18.621735 2.5622847
3.6621234 -5.9063988 -1.6466544
10.838359 -17.480478 2.8906255
4.0874448 -6.5923715 -1.6487398
4.6191754 -7.449965 -1.6515567
5.327559 -8.6462917 -1.6685445
6.1890278 -10.044402 -1.6581085
7.5465965 -12.24765 -1.6823269
9.3661041 -15.200596 -1.6657383
11.329501 -18.387066 -1.5102277
1.8987015 -3.0814729 -1.6114906
11.509377 -18.678991 -1.0231584
2.0223665 -3.2821734 -1.6102971
11.538709 -18.726597 -0.51068395
2.1676388 -3.517941 -1.6135464
11.525032 -18.704401 0
2.3257117 -3.7744832 -1.613651
11.557589 -18.757236 0.51151949
2.5206621 -4.0908756 -1.6236333
11.574354 -18.784447 1.0289348
2.7411993 -4.4487934 -1.6305665
11.210188 -18.193428 1.4943231
2.9902563 -4.8529973 -1.6345296
3.2894814 -5.3386207 -1.6415759
11.480371 -18.631918 2.5592647
3.6394894 -5.906662 -1.6438876
10.765605 -17.471897 2.8842235
4.0710711 -6.6070919 -1.6495715
4.5983524 -7.4628358 -1.6515567
5.2967296 -8.6536446 -1.6669233
6.1591983 -10.06272 -1.6581085
7.511261 -12.271682 -1.6825591
9.3053675 -15.202841 -1.6629516
11.332181 -18.514193 -1.5179008
1.8933656 -3.0933263 -1.6147445
11.43826 -18.6875 -1.0217611
2.0183997 -3.2976036 -1.6149222
11.463263 -18.72835 -0.50980192
2.155246 -3.521179 -1.6120914
11.452779 -18.71122 0
2.3174455 -3.786176 -1.6157032
11.482051 -18.759045 0.51063752
2.5144482 -4.1080332 -1.6274747
11.500838 -18.789738 1.027351
2.7240002 -4.4503932 -1.6281834
11.136368 -18.194277 1.4916724
2.9788551 -4.8667679 -1.6361835
10.690102 -17.465179 1.9104158
3.2705965 -5.3434067 -1.6400564
10.699113 -17.479902 2.3966537
3.6209321 -5.9157743 -1.6434265
10.697174 -17.476734 2.87977
4.0483856 -6.6141362 -1.648324
4.5731115 -7.4714179 -1.6504459
5.2791858 -8.6759109 -1.6685445
6.1338625 -10.080503 -1.6583868
7.481173 -12.294698 -1.6830237
9.2469015 -15.196529 -1.6596075
11.339677 -18.635834 -1.5254346
1.8947585 -3.1138809 -1.6228793
11.380989 -18.703728 -1.0210156
2.0116787 -3.3060298 -1.6164639
11.395485 -18.727551 -0.50896639
2.143115 -3.5220349 -1.6099089
11.399594 -18.734304 0
2.3075256 -3.7922301 -1.6157032
11.404839 -18.742922 0.50938416
2.4997451 -4.1081271 -1.6249138
11.427722 -18.780529 1.0252081
2.7133324 -4.4591408 -1.6287793
11.068992 -18.190987 1.4890217
2.9651043 -4.8729072 -1.6356323
3.2565963 -5.3519506 -1.6400564
10.63576 -17.479004 2.3927045
3.6115022 -5.9352093 -1.6461933
10.635941 -17.479301 2.8755949
4.0290222 -6.6213694 -1.6474924
4.5535355 -7.4833646 -1.6504459
5.2493372 -8.6847801 -1.6672475
6.098804 -10.090182 -1.6569951
7.443634 -12.315141 -1.6827915
9.1894121 -15.203447 -1.6573781
11.19661 -18.524261 -1.513576
1.8779502 -3.1069796 -1.6163715
11.303742 -18.701506 -1.0190592
1.9951783 -3.3009281 -1.611068
11.320218 -18.728765 -0.50808436
2.134583 -3.5315666 -1.6113639
11.31706 -18.723541 0
2.2952914 -3.797451 -1.6150191
11.326423 -18.739031 0.50836283
2.4855847 -4.1122823 -1.6236333
11.34508 -18.769897 1.0227858
2.6971273 -4.4622693 -1.626992
10.998458 -18.196428 1.4867895
2.9546111 -4.8882642 -1.6378373
10.549127 -17.453032 1.9026127
3.2417033 -5.363245 -1.6405628
10.563302 -17.476482 2.3880584
3.5918627 -5.9425669 -1.6452711
10.565592 -17.480272 2.8705847
4.0134063 -6.6399908 -1.6491556
4.5272455 -7.4901133 -1.6489646
5.2276092 -8.7070856 -1.6685445
6.0678191 -10.106536 -1.6567167
7.4111509 -12.343984 -1.6837206
9.1309357 -15.208451 -1.6549628
10.802697 -17.992929 -1.4675367
1.8696637 -3.1141045 -1.6171849
10.833775 -18.044693 -0.9815129
1.9872751 -3.3099976 -1.6126096
10.842627 -18.059437 -0.48905149
2.1250541 -3.5394819 -1.6120914
10.847608 -18.067732 0
2.2878835 -3.8106897 -1.6177552
11.214169 -18.678274 0.50580972
2.4723973 -4.1180153 -1.6229931
11.266714 -18.765795 1.0207361
2.6887891 -4.4784365 -1.6299707
10.924908 -18.196482 1.4841387
2.9351463 -4.8887682 -1.6350808
10.493196 -17.477427 1.9018697
3.2247803 -5.371181 -1.6400564
10.501176 -17.490717 2.3857355
3.5662012 -5.9398503 -1.6415821
10.49533 -17.48098 2.8655744
3.9946947 -6.6535478 -1.6495715
4.5060134 -7.5051985 -1.6493349
5.1961956 -8.7097864 -1.6662749
6.038558 -10.121741 -1.6564384
7.3685088 -12.350986 -1.6818622
9.0710859 -15.204821 -1.6518046
10.702321 -17.939074 -1.4607005
1.8656406 -3.1271594 -1.6212524
10.713738 -17.95821 -0.97517759
1.9789696 -3.3171196 -1.6133806
10.728638 -17.983185 -0.48617336
2.114207 -3.5438027 -1.6113639
10.731529 -17.988031 0
2.2762702 -3.8154502 -1.6170712
10.748102 -18.01581 0.48705536
2.4628291 -4.1281581 -1.6242737
10.76594 -18.04571 0.97992909
2.669425 -4.4744511 -1.6258005
10.768764 -18.050444 1.469769
2.9234526 -4.9002481 -1.6361835
10.490259 -17.583618 1.9102299
3.2107592 -5.3818274 -1.6405628
10.489947 -17.583094 2.3943305
3.5476053 -5.946444 -1.6406598
10.432265 -17.48641 2.8616774
3.96808 -6.651237 -1.6462449
4.487051 -7.5211287 -1.6500757
5.1637793 -8.717577 -1.6646537
6.0026932 -10.133845 -1.6553251
7.3367581 -12.386036 -1.6834882
9.0080519 -15.207541 -1.6490178
10.625577 -17.938274 -1.4579103
1.8539449 -3.1298604 -1.6196253
10.640978 -17.964273 -0.97368687
1.97042 -3.3264956 -1.6149222
10.651711 -17.982393 -0.4852449
2.1021144 -3.5488241 -1.6106364
10.660697 -17.997564 0
2.2594838 -3.8144977 -1.613651
10.672091 -18.0168 0.48617336
2.4498484 -4.1358743 -1.6242737
10.69087 -18.048502 0.97825211
2.6621664 -4.4943132 -1.6299707
10.691669 -18.049852 1.4669787
2.9070642 -4.9077539 -1.6356323
10.493832 -17.715858 1.9210054
3.1977808 -5.3985462 -1.642589
10.488315 -17.706547 2.4066427
3.5239482 -5.9491873 -1.6383543
10.359112 -17.488422 2.8566673
3.9451716 -6.6603036 -1.6454133
4.4634013 -7.5351877 -1.6500757
5.118392 -8.6962471 -1.6578445
5.9733648 -10.148862 -1.6550466
7.3031473 -12.408188 -1.6837206
8.9503956 -15.206894 -1.6462309
10.56026 -17.942085 -1.4558176
1.8451971 -3.1350255 -1.6196253
10.575569 -17.968096 -0.97228938
1.9592505 -3.3288043 -1.6133806
10.585223 -17.984499 -0.48450217
2.0969205 -3.5627081 -1.6142738
10.592134 -17.996241 0
2.2497756 -3.822412 -1.6143351
10.60145 -18.012068 0.4852449
2.4354055 -4.1378007 -1.6223528
10.622183 -18.047295 0.97657502
2.6476684 -4.4984393 -1.6287793
10.624016 -18.050407 1.4646069
2.8913968 -4.912539 -1.6345296
10.495831 -17.832621 1.9304804
3.1738596 -5.3924484 -1.6380304
10.489206 -17.821363 2.4182577
3.5122559 -5.9673905 -1.6406598
10.293155 -17.488268 2.8519354
3.9275486 -6.6729808 -1.6458291
4.4413443 -7.5459294 -1.6497053
5.1065116 -8.7352476 -1.6623839
5.9432268 -10.16654 -1.6550466
7.2743211 -12.443522 -1.6855791
8.8901634 -15.207598 -1.6434443
10.49087 -17.94578 -1.4535854
1.8414201 -3.1499505 -1.6245062
10.503055 -17.966623 -0.97051924
1.9521596 -3.3393826 -1.6156931
10.513655 -17.984756 -0.4836666
2.0844603 -3.5656974 -1.6128188
10.521534 -17.998236 0
2.2422185 -3.8355601 -1.6170712
10.529799 -18.012373 0.48440933
2.430768 -4.1580949 -1.6274747
10.549434 -18.045961 0.97480488
2.6391275 -4.5145164 -1.631758
10.555311 -18.056015 1.4625143
2.8738978 -4.9161167 -1.6328758
10.495136 -17.953079 1.9401412
3.1568696 -5.4001713 -1.6375238
10.491423 -17.946728 2.4310341
3.4925714 -5.9744253 -1.6397377
10.225229 -17.491373 2.847482
3.9067454 -6.6829157 -1.6454133
4.4229035 -7.5658603 -1.6511865
5.085609 -8.7519989 -1.6630324
5.9185815 -10.18549 -1.6556034
7.2407212 -12.460806 -1.6853467
8.8393145 -15.211879 -1.6414006
10.427814 -17.945583 -1.4513532
1.8350033 -3.1579199 -1.6261332
10.435907 -17.959511 -0.96865582
1.9387746 -3.3365035 -1.6118388
10.450462 -17.984558 -0.48292387
2.0760543 -3.5727532 -1.6135464
10.454283 -17.991133 0
2.2302814 -3.8381674 -1.6157032
10.466536 -18.012218 0.4836666
2.4151142 -4.1562529 -1.6242737
10.486094 -18.045879 0.97331423
2.6234629 -4.5148072 -1.629375
10.487958 -18.049086 1.4597239
2.8639157 -4.9286108 -1.6345296
10.494123 -18.059694 1.9486872
3.1475821 -5.4167819 -1.6400564
10.494306 -18.060009 2.4426494
3.479852 -5.9885964 -1.641121
10.161492 -17.487261 2.8424718
3.8921852 -6.698195 -1.6466608
4.4030814 -7.5774136 -1.6511865
5.8845735 -10.200603 -1.6550466
7.1945896 -12.471447 -1.6837206
8.7785444 -15.217152 -1.6389855
10.371385 -17.978256 -1.4513532
10.377437 -17.988747 -0.96846956
1.9310493 -3.3473737 -1.6141514
10.391911 -18.013836 -0.48283097
2.0648198 -3.5792577 -1.6135464
10.39571 -18.020424 0
2.2172728 -3.8435271 -1.6150191
10.395907 -18.020765 0.4830167
2.3973107 -4.1556134 -1.6210724
10.414374 -18.052776 0.97191668
2.6044958 -4.5147581 -1.6263962
10.415251 -18.054296 1.4574918
2.8484175 -4.9375839 -1.6345296
10.429373 -18.078775 1.947201
3.1305487 -5.4266434 -1.6400564
10.436523 -18.091169 2.4424171
3.4629655 -6.0028706 -1.6420432
10.089679 -17.489933 2.8377397
3.8691676 -6.7070007 -1.6458291
4.3861284 -7.603126 -1.6537786
5.0512495 -8.8128433 -1.6688688
5.8580356 -10.220432 -1.6556034
7.1656623 -12.50183 -1.6851144
8.7221537 -15.217418 -1.6363845
10.364794 -18.083309 -1.4574918
10.370876 -18.09392 -0.97256887
1.9207767 -3.3511519 -1.6133806
10.384321 -18.117378 -0.4848271
2.059449 -3.5930915 -1.6171837
10.392093 -18.130936 0
2.2121387 -3.8594868 -1.6191233
10.381338 -18.112175 0.48468786
2.3875813 -4.1655793 -1.6223528
10.389752 -18.126854 0.97433901
2.5890303 -4.5170445 -1.624609
10.388605 -18.124851 1.4608401
2.8355746 -4.9471869 -1.6350808
10.399643 -18.14411 1.9511025
3.1163449 -5.4370427 -1.6405628
10.385963 -18.120243 2.4424171
3.4452214 -6.010829 -1.6415821
10.024056 -17.488829 2.8330078
3.8562603 -6.727963 -1.648324
4.3560839 -7.599998 -1.6504459
5.0227122 -8.8200541 -1.6675717
5.8324113 -10.241914 -1.6564384
7.134654 -12.528696 -1.6860436
8.6697693 -15.224411 -1.6345266
10.303394 -18.093113 -1.4559572
10.316353 -18.115868 -0.97219622
1.912324 -3.3581061 -1.6141514
10.330718 -18.141094 -0.48468786
2.0475631 -3.5955906 -1.6157289
10.335482 -18.14946 0
2.1976321 -3.8591168 -1.6163872
10.347538 -18.170631 0.485477
2.3768771 -4.1738772 -1.6229931
10.36183 -18.195726 0.97648191
2.5811298 -4.5325518 -1.6275877
10.367568 -18.205803 1.4650254
2.8226993 -4.9567566 -1.6356323
10.396233 -18.25614 1.9600199
3.1011493 -5.445724 -1.6405628
10.399216 -18.261377 2.4575167
3.4284222 -6.0204263 -1.6415821
9.9604769 -17.490936 2.8288326
3.8393927 -6.7421045 -1.6491556
4.3426237 -7.6257958 -1.6534083
4.9932036 -8.8254576 -1.6659505
5.8018379 -10.254713 -1.6558818
7.0976839 -12.545114 -1.6855791
8.613493 -15.224297 -1.6319257
10.242022 -18.102711 -1.4544225
10.25687 -18.128956 -0.9713577
1.8993042 -3.3570087 -1.611068
10.273127 -18.15769 -0.48436293
2.036597 -3.5996728 -1.6150012
10.281804 -18.173027 0
2.1896234 -3.8701458 -1.6184393
10.284942 -18.178572 0.48491994
2.3614802 -4.173902 -1.6204321
10.304091 -18.21242 0.97582978
2.5703428 -4.5430655 -1.6287793
10.300969 -18.206902 1.4627932
2.8079 -4.9629459 -1.6350808
10.401107 -18.383892 1.9706097
3.0840249 -5.4509954 -1.6395499
10.406872 -18.394083 2.4714549
3.4192634 -6.0435271 -1.6452711
9.896966 -17.492828 2.8246574
3.8195872 -6.7510972 -1.6487398
4.3164725 -7.6293392 -1.6515567
4.9586878 -8.8290558 -1.6636808
5.7715325 -10.276343 -1.6564384
7.0650463 -12.579473 -1.6872052
8.5548954 -15.232184 -1.6298821
10.223203 -18.202642 -1.4598635
10.241933 -18.235992 -0.97536391
1.889652 -3.364568 -1.6118388
10.264009 -18.275299 -0.48663756
2.0280151 -3.6109266 -1.6171837
10.277547 -18.299404 0
2.1737728 -3.8704515 -1.6157032
10.274778 -18.294474 0.4871482
2.3539228 -4.1912127 -1.6242737
10.288891 -18.319601 0.97983587
2.5551226 -4.5494533 -1.6281834
10.225156 -18.206121 1.4601425
2.7904117 -4.9683909 -1.6339784
10.398883 -18.515446 1.9811994
3.065937 -5.4589696 -1.6390433
10.402534 -18.521946 2.4842312
3.393589 -6.0423617 -1.6420432
9.8264446 -17.496206 2.820204
3.7945273 -6.7562413 -1.6470766
4.2953711 -7.6480045 -1.6526678
4.9386153 -8.8583803 -1.6662749
5.7334337 -10.284044 -1.6547682
7.0225906 -12.596401 -1.6865082
8.4914846 -15.231153 -1.6269094
10.220372 -18.332254 -1.4676762
1.8799713 -3.3720994 -1.6126096
10.278594 -18.436686 -0.49007276
2.0175683 -3.618907 -1.6179113
10.306684 -18.487072 0
2.1643481 -3.8821855 -1.6177552
10.278594 -18.436686 0.49007276
2.3379762 -4.1936216 -1.6223528
10.29355 -18.463514 0.98579854
2.5426772 -4.5607934 -1.629375
10.15528 -18.215498 1.4583288
2.772917 -4.9737735 -1.6328758
10.403694 -18.661077 1.9932753
3.0478303 -5.4668846 -1.6385368
10.401365 -18.6569 2.497937
3.3764853 -6.0563927 -1.6429654
9.7531071 -17.494122 2.8149154
3.7770939 -6.7749634 -1.6487398
4.2703662 -7.6597438 -1.6522975
4.9179115 -8.8721485 -1.666599
5.7092476 -10.299756 -1.6550466
6.9850483 -12.601361 -1.6848822
8.4407263 -15.227474 -1.6243085
8.6076221 -15.528563 -1.2415257
1.8726207 -3.3782976 -1.6133806
2.0060098 -3.618938 -1.6157289
2.1521223 -3.8825316 -1.6157032
2.332315 -4.2076082 -1.625554
10.408216 -18.776922 1.0011711
2.5296736 -4.5636525 -1.6281834
10.096232 -18.214087 1.4562361
2.7635515 -4.985579 -1.6345296
10.483569 -18.912861 2.0174272
3.0335248 -5.4726238 -1.6380304
10.426048 -18.809092 2.514895
3.3654501 -6.0714335 -1.64481
9.6959267 -17.491917 2.8107402
3.7567341 -6.7773285 -1.6470766
4.2430601 -7.6546841 -1.6489646
4.8852577 -8.8789082 -1.6649778
5.6739984 -10.312436 -1.6542116
6.9540443 -12.638907 -1.6869729
8.3832474 -15.23647 -1.6224507
8.5020037 -15.452308 -0.82247704
1.8637775 -3.3873973 -1.6149222
10.315224 -18.747816 -0.49680391
1.9946309 -3.625222 -1.6157289
10.314147 -18.745859 0
2.1453502 -3.8991528 -1.6198074
10.322933 -18.761829 0.49717525
2.3136051 -4.2049541 -1.6217127
10.349177 -18.809526 1.0011711
2.5171654 -4.574923 -1.629375
10.019726 -18.210752 1.4534459
2.745095 -4.9891829 -1.6328758
3.0135193 -5.4770412 -1.6365108
10.398509 -18.899187 2.5225608
3.345422 -6.0802712 -1.6443489
9.6285162 -17.499733 2.8071215
3.7335382 -6.7856688 -1.6462449
4.2208872 -7.6714211 -1.6497053
4.8588929 -8.893363 -1.6649778
5.6452756 -10.332701 -1.6547682
6.9127049 -12.652511 -1.6860436
8.3246384 -15.236811 -1.6198498
8.4235525 -15.417856 -0.81930941
1.8501798 -3.3864343 -1.6118388
10.241339 -18.745001 -0.49592188
1.982973 -3.6294892 -1.6150012
10.242181 -18.746542 0
2.1319699 -3.9022024 -1.6184393
10.2538 -18.767809 0.49652535
2.303844 -4.2167883 -1.6236333
10.276082 -18.808592 0.99949414
2.5054114 -4.5857224 -1.6305665
9.9541712 -18.219389 1.4517717
2.7321239 -5.0006804 -1.6339784
10.45282 -19.13208 2.033962
2.9981833 -5.4876561 -1.6370174
10.336675 -18.919497 2.5211673
3.3310995 -6.0970016 -1.6461933
9.5623093 -17.502153 2.8029466
3.7199545 -6.8087335 -1.6491556
4.1990499 -7.6856346 -1.6500757
4.8337097 -8.902586 -1.6643294
5.6172595 -10.345706 -1.65449
6.8861909 -12.682787 -1.6876698
8.2723656 -15.235803 -1.6174345
8.4184732 -15.5049 -1.233713
8.40413 -15.478483 -0.82135904
1.8439492 -3.396132 -1.6141514
10.170285 -18.731337 -0.49485421
1.9752418 -3.6379428 -1.6164563
10.168254 -18.727594 0
2.1163659 -3.8978612 -1.6143351
10.193183 -18.773508 0.49596831
2.2937005 -4.2244706 -1.6242737
10.213459 -18.810852 0.99818981
2.491575 -4.5889106 -1.629375
9.886446 -18.208569 1.4488419
2.7217743 -5.0128851 -1.6356323
2.9865754 -5.5005879 -1.6385368
10.277628 -18.929037 2.5188441
3.3151257 -6.1057019 -1.6461933
9.5013342 -17.499281 2.7984931
3.7011826 -6.8167305 -1.6487398
4.1817274 -7.7017841 -1.6511865
4.8072743 -8.9168882 -1.6643294
5.5874786 -10.364069 -1.6547682
6.8494735 -12.70491 -1.687902
8.2176743 -15.24275 -1.6155766
8.3221426 -15.436526 -0.81781876
1.8329891 -3.3999639 -1.6133806
10.099482 -18.733267 -0.49411142
1.9662074 -3.6470671 -1.6179113
10.09556 -18.725992 0
2.1065753 -3.9074318 -1.6157032
10.12605 -18.782547 0.49541128
2.2793579 -4.227922 -1.6229931
10.141484 -18.811176 0.99660593
2.4779487 -4.5962825 -1.629375
9.8229113 -18.220263 1.4474469
2.7059767 -5.0192461 -1.6350808
2.9684057 -5.5060186 -1.6375238
10.210108 -18.938463 2.5160565
3.2988427 -6.1189375 -1.6471156
9.4333944 -17.497759 2.793761
3.6809411 -6.827682 -1.6487398
4.1635208 -7.7228069 -1.653038
4.7835903 -8.9363327 -1.665302
5.5567026 -10.380602 -1.6547682
6.8098717 -12.721675 -1.6874374
8.1583147 -15.240732 -1.61279
8.2895966 -15.485983 -1.2282721
8.2499037 -15.411832 -0.81520998
1.8246348 -3.4086413 -1.6149222
10.028757 -18.734947 -0.49336869
1.9580152 -3.6578126 -1.6200936
10.025796 -18.729416 0
2.0949724 -3.9136651 -1.6157032
10.058009 -18.789593 0.49480775
2.2668033 -4.2346663 -1.6229931
10.069597 -18.811241 0.99502206
2.458894 -4.5935154 -1.6258005
9.7518578 -18.217665 1.4449356
2.6892579 -5.0238633 -1.6339784
2.9493167 -5.509685 -1.6360044
10.141685 -18.94591 2.5130367
3.2806726 -6.1286983 -1.6471156
9.3674145 -17.499479 2.7895858
3.6578968 -6.8333993 -1.6474924
4.1350231 -7.7247305 -1.6508162
4.7598333 -8.9557133 -1.6662749
5.5314565 -10.407537 -1.6564384
6.7637057 -12.726036 -1.6853467
8.1009102 -15.24201 -1.6103747
8.1939869 -15.417136 -1.2208778
8.2032032 -15.434477 -0.81511688
1.8119148 -3.4091508 -1.6126096
9.9684334 -18.755791 -0.49313658
1.9454051 -3.6603155 -1.6186388
9.9701815 -18.759079 0
2.0877612 -3.9281609 -1.6191233
9.9853249 -18.787571 0.49397218
2.2568967 -4.2463927 -1.6249138
10.000613 -18.816338 0.99371773
2.448838 -4.6075335 -1.6281834
9.6827803 -18.218328 1.4427034
2.671633 -5.0267267 -1.6323246
2.9365885 -5.5252452 -1.6380304
10.070509 -18.947847 2.5093198
3.2615607 -6.1366863 -1.6466544
9.3024387 -17.502708 2.7856889
3.6385241 -6.8459496 -1.6479082
4.1083961 -7.730022 -1.6493349
4.7348051 -8.9689713 -1.6662749
5.5032949 -10.424694 -1.6567167
6.7355599 -12.758928 -1.6872052
8.049017 -15.246963 -1.6085168
8.1453133 -15.429373 -1.2200408
8.1404829 -15.420224 -0.81316042
1.8049722 -3.4190938 -1.6149222
9.9038839 -18.760571 -0.49253312
1.9360456 -3.6673815 -1.6193662
9.8990822 -18.751474 0
2.0767834 -3.9339759 -1.6191233
9.9197521 -18.790628 0.49332228
2.2459142 -4.254354 -1.625554
9.9293747 -18.808857 0.99185443
2.4359617 -4.6143541 -1.6281834
9.6160326 -18.215305 1.4403317
2.6593802 -5.0375681 -1.633427
2.9220505 -5.5351353 -1.6385368
10.006429 -18.954819 2.5065322
3.2362342 -6.1302814 -1.6425045
9.2396555 -17.502348 2.7815137
3.6184785 -6.8543539 -1.6474924
4.0886283 -7.7449412 -1.6500757
4.711185 -8.9925423 -1.6678959
5.4686804 -10.438423 -1.65616
6.6926789 -12.774747 -1.6865082
7.9881411 -15.247479 -1.6059159
8.0727282 -15.408936 -1.2164135
8.0716028 -15.406789 -0.81111068
1.7925094 -3.4214783 -1.6133806
9.8300514 -18.763252 -0.49179038
1.9236504 -3.6717954 -1.6186388
9.8280602 -18.759451 0
2.0644145 -3.9404809 -1.6191233
9.8430414 -18.788048 0.49244028
2.2342966 -4.2647462 -1.6268345
9.8591118 -18.818722 0.99073642
2.4196815 -4.6186023 -1.626992
9.5476513 -18.224216 1.4386575
2.6444337 -5.0476012 -1.6339784
2.8983622 -5.5322905 -1.6349913
9.9330053 -18.959766 2.5030477
3.218766 -6.1438656 -1.6434265
9.1690016 -17.501465 2.776782
3.6032825 -6.8778176 -1.6504031
4.0651894 -7.7594891 -1.6504459
4.6839809 -8.9978447 -1.666599
5.4468207 -10.463245 -1.6578301
6.6527896 -12.779891 -1.6848822
7.9353213 -15.243611 -1.6033149
8.0535479 -15.470722 -1.2196223
8.0902786 -15.541282 -0.8170734
1.7809892 -3.4212487 -1.611068
9.7661219 -18.760548 -0.49104759
1.9191922 -3.6867342 -1.6230036
9.7659836 -18.760281 0
2.0488842 -3.9358702 -1.6150191
9.7836628 -18.794243 0.49192962
2.2213736 -4.2672191 -1.625554
9.7950478 -18.816114 0.98924571
2.4075816 -4.6249213 -1.626992
9.4860878 -18.222607 1.4365649
2.6303217 -5.0528016 -1.633427
2.8919091 -5.555306 -1.6395499
9.8805809 -18.980419 2.5023508
3.2080615 -6.1626291 -1.6461933
9.1112614 -17.502571 2.7731633
3.579844 -6.8768167 -1.6479082
4.0448604 -7.7701054 -1.6504459
4.6556907 -9.0125141 -1.666599
5.4148321 -10.482064 -1.6581085
6.6208143 -12.816612 -1.6869729
7.8782558 -15.250774 -1.6014572
7.9673624 -15.423267 -1.2139021
1.7710794 -3.4284661 -1.6118388
9.6933727 -18.764488 -0.49035129
1.9050356 -3.6877794 -1.6208211
9.6904764 -18.758883 0
2.0390971 -3.9472964 -1.6170712
9.7071371 -18.791134 0.49104759
2.2027395 -4.2640762 -1.6217127
9.712966 -18.802418 0.98691654
2.3974216 -4.6409431 -1.6299707
9.4141426 -18.223953 1.4343326
2.6144352 -5.0610394 -1.633427
2.8682268 -5.5523305 -1.6360044
9.813611 -18.997248 2.5004926
3.1886857 -6.1726766 -1.6461933
9.0444145 -17.508232 2.7695451
3.554631 -6.8810763 -1.6462449
4.0213327 -7.7845201 -1.6508162
4.6311793 -9.0229158 -1.6662749
5.3864679 -10.494442 -1.6578301
6.5872383 -12.8339 -1.6869729
7.8264809 -15.248314 -1.5990419
7.904182 -15.399699 -1.2104144
7.9075832 -15.406325 -0.80757034
1.7629404 -3.4347324 -1.6126096
9.6296062 -18.761339 -0.48960856
1.8928226 -3.6877816 -1.6186388
9.6285477 -18.759277 0
2.0313308 -3.9576371 -1.6191233
9.6469536 -18.795137 0.49049059
2.1967599 -4.279942 -1.625554
9.6491127 -18.799343 0.98542589
2.3800328 -4.637012 -1.6263962
9.354558 -18.225462 1.432519
2.6020551 -5.0695777 -1.6339784
2.860749 -5.5735903 -1.6400564
3.1680715 -6.1723461 -1.6438876
8.9822693 -17.500134 2.7645347
3.5357115 -6.888618 -1.6458291
3.9991446 -7.7915239 -1.6500757
4.6008024 -9.029583 -1.6649778
5.3508101 -10.501555 -1.6564384
6.5518351 -12.8587 -1.6876698
7.7685461 -15.24663 -1.5964409
7.8611727 -15.428419 -1.210833
7.8573012 -15.420821 -0.80710453
1.7535793 -3.4415929 -1.6133806
9.5548344 -18.752417 -0.48863372
1.8835636 -3.6967018 -1.6200936
9.5619488 -18.76638 0
2.0153131 -3.9552746 -1.6157032
9.5702658 -18.782703 0.48942286
2.184051 -4.2864413 -1.625554
9.582407 -18.806532 0.98430789
2.3714643 -4.6542602 -1.6299707
9.2868519 -18.226473 1.4304262
2.5870013 -5.0772758 -1.6339784
2.8424418 -5.5786061 -1.6390433
3.1532776 -6.1886559 -1.6457322
8.9222126 -17.510828 2.7620296
3.5134799 -6.8955922 -1.6449974
3.9769008 -7.8051071 -1.6504459
4.5757732 -9.0467167 -1.6656263
5.3205218 -10.519152 -1.6567167
6.5118613 -12.874537 -1.6872052
7.7133889 -15.250066 -1.5943974
7.8090587 -15.439213 -1.2098564
7.8250389 -15.470808 -0.80850202
1.7416945 -3.4434872 -1.6118388
9.4838123 -18.750353 -0.48784453
1.8734281 -3.7039363 -1.6208211
9.4881735 -18.758974 0
2.0027206 -3.9595592 -1.6150191
9.4973488 -18.777115 0.48854083
2.1687582 -4.2878304 -1.6236333
9.5202532 -18.822401 0.98365575
2.3585064 -4.6629801 -1.6305665
9.2183256 -18.225462 1.428194
2.5727932 -5.0866446 -1.6345296
2.8206384 -5.5766563 -1.6360044
3.1331453 -6.1945109 -1.64481
8.8532343 -17.503643 2.756741
3.5000691 -6.9199524 -1.648324
3.947516 -7.8045955 -1.6478537
4.5513773 -9.061223 -1.6659505
5.2893476 -10.53043 -1.65616
6.4740996 -12.889121 -1.6867405
7.6627269 -15.25553 -1.5927252
7.7614346 -15.452044 -1.2091588
7.7773209 -15.483672 -0.80803621
1.7345564 -3.4532847 -1.6141514
9.418849 -18.751749 -0.48719463
1.8630773 -3.7091537 -1.6208211
9.4231825 -18.760378 0
1.9916553 -3.9651365 -1.6150191
9.4332085 -18.780338 0.48793736
2.1618783 -4.3040295 -1.6274747
9.4524088 -18.818562 0.98207188
2.3420475 -4.6627235 -1.6281834
9.1584396 -18.233305 1.4267989
2.5585785 -5.0938096 -1.6345296
2.8102646 -5.5948849 -1.6390433
3.1202021 -6.2119317 -1.6471156
8.7954302 -17.510599 2.7539575
3.4737062 -6.9157143 -1.6449974
3.9274697 -7.8191009 -1.6485944
4.5220075 -9.0737104 -1.6656263
5.2535887 -10.541677 -1.6553251
6.4344606 -12.911175 -1.6869729
7.604991 -15.259922 -1.5906817
7.6950526 -15.440638 -1.2063684
7.6849737 -15.420414 -0.80347103
1.7253454 -3.4620209 -1.6156931
9.3572159 -18.775879 -0.48705536
1.8530772 -3.7183232 -1.6222761
9.3543844 -18.770197 0
1.9825416 -3.9781022 -1.6177552
9.3670254 -18.795563 0.48756599
2.143275 -4.3006248 -1.6236333
9.3772011 -18.815981 0.9803949
2.3273873 -4.6700583 -1.6281834
9.0824223 -18.224489 1.4238691
2.5399902 -5.0966601 -1.6328758
2.7866325 -5.5915647 -1.6354978
3.0937264 -6.2077689 -1.6434265
8.7297735 -17.516874 2.7506175
3.4580705 -6.9388499 -1.6479082
3.9002559 -7.8261242 -1.6474835
4.4931507 -9.0792284 -1.6643294
5.2241306 -10.556306 -1.6553251
6.4045486 -12.941555 -1.688599
7.5526328 -15.261468 -1.5886381
7.6262422 -15.410209 -1.2023225
7.6347933 -15.427488 -0.80272567
1.7140338 -3.463517 -1.6141514
9.2905588 -18.773264 -0.48631263
1.8418603 -3.7218137 -1.6215485
9.2895136 -18.771151 0
1.9722588 -3.9853075 -1.6184393
9.3047476 -18.801935 0.48705536
2.1362998 -4.316782 -1.6274747
9.3060122 -18.804489 0.97843844
2.3168776 -4.6816726 -1.6299707
9.0226469 -18.231897 1.4224739
2.5266006 -5.1054559 -1.633427
2.7710075 -5.5993242 -1.6354978
3.0755162 -6.2146397 -1.6429654
8.6658907 -17.511007 2.7458856
3.4369452 -6.9449725 -1.6470766
3.8748991 -7.8299384 -1.6460022
4.4661922 -9.0925198 -1.6643294
5.1875472 -10.561094 -1.6536549
6.3634944 -12.955153 -1.687902
7.4950266 -15.258788 -1.586037
7.5743279 -15.420234 -1.2013459
7.6057205 -15.484145 -0.80449581
1.7045633 -3.4702437 -1.6149222
9.2207108 -18.77203 -0.48556983
1.8291665 -3.723918 -1.6200936
9.2187872 -18.768114 0
1.9612538 -3.9928284 -1.6191233
9.2339334 -18.79895 0.4862662
2.120976 -4.3179994 -1.625554
9.2343225 -18.799742 0.97676134
2.3004513 -4.6833854 -1.6281834
8.9553175 -18.231728 1.4203813
2.5097461 -5.1094794 -1.6323246
2.7620585 -5.6231508 -1.6400564
3.0630693 -6.2359653 -1.6461933
8.6007977 -17.509977 2.7417102
3.417186 -6.9568954 -1.6474924
3.8559828 -7.8502221 -1.6478537
4.4432383 -9.1059542 -1.6646537
5.1564069 -10.567519 -1.6525415
6.336525 -12.986049 -1.6897604
7.4471946 -15.262251 -1.584365
7.5313082 -15.434633 -1.2009275
7.5388746 -15.450139 -0.80170083
1.691426 -3.4664018 -1.611068
9.1513681 -18.754776 -0.48450217
1.822679 -3.7353911 -1.6230036
9.148572 -18.749046 0
1.9491456 -3.9945712 -1.6177552
9.1689043 -18.790716 0.4854306
2.1071715 -4.318429 -1.6236333
9.1798172 -18.81308 0.97620237
2.2890198 -4.6911082 -1.6287793
8.8961821 -18.2318 1.4185677
2.4988904 -5.1212158 -1.6339784
2.7422371 -5.6199293 -1.6370174
3.0501468 -6.2509589 -1.6480378
8.5436373 -17.509295 2.7380919
3.3955297 -6.9587851 -1.6458291
3.8414509 -7.8726544 -1.6504459
4.41117 -9.1127625 -1.6633565
5.1197314 -10.576535 -1.6514281
6.2922363 -12.99874 -1.6888313
7.3922696 -15.271232 -1.5828787
7.5375476 -15.571351 -1.2097168
7.4772434 -15.446773 -0.80030334
1.6893728 -3.4899704 -1.6195472
9.0784655 -18.754639 -0.48375943
1.8068767 -3.7327144 -1.6193662
9.0782976 -18.754292 0
1.9390435 -4.0057497 -1.6198074
9.0932751 -18.785233 0.4845486
2.0977228 -4.3335552 -1.6268345
9.1128359 -18.825644 0.97536391
2.2784305 -4.7068682 -1.631758
8.8284311 -18.238108 1.4168935
2.4769261 -5.1169281 -1.6301194
2.7270975 -5.6337414 -1.6385368
3.0228629 -6.2447448 -1.6438876
8.4765081 -17.511091 2.734195
3.3796184 -6.9817438 -1.6487398
3.820982 -7.8935294 -1.6522975
4.3865595 -9.1268234 -1.6636808
5.0893178 -10.589006 -1.6511497
6.2602143 -13.025213 -1.6899928
7.3495946 -15.291815 -1.5828787
7.4430423 -15.486245 -1.2014855
7.4159036 -15.429779 -0.79834682
1.6748234 -3.4846942 -1.6149222
9.0139303 -18.754686 -0.48310953
1.7988667 -3.7427831 -1.6215485
9.0137596 -18.754333 0
1.9311061 -4.0179248 -1.6225436
9.0303869 -18.788929 0.48399153
2.0839708 -4.3359804 -1.625554
9.0507088 -18.831209 0.97433901
2.2594881 -4.7011671 -1.6275877
8.7645016 -18.235718 1.4148009
2.4634595 -5.1255574 -1.6306707
2.7138684 -5.6465664 -1.6400564
9.1128063 -18.960411 2.4600718
3.0079412 -6.2584238 -1.6452711
8.4198523 -17.518627 2.7316897
3.354176 -6.9788117 -1.6458291
3.7955179 -7.8970828 -1.6508162
4.3593559 -9.1354752 -1.6630324
5.0605807 -10.604963 -1.6514281
6.2178278 -13.030093 -1.6883667
7.3034334 -15.30509 -1.5821357
7.355947 -15.415137 -1.1943704
7.3822517 -15.470263 -0.79937172
1.6658809 -3.4910233 -1.6156931
8.9598007 -18.776176 -0.4830167
1.7884082 -3.7477918 -1.6215485
8.9553242 -18.766796 0
1.9077379 -3.9978592 -1.612283
8.9675503 -18.792418 0.48343447
2.0685906 -4.3349428 -1.6229931
8.9851818 -18.829365 0.97294158
2.2504625 -4.716074 -1.6305665
8.7006559 -18.233112 1.412708
2.4541049 -5.1428275 -1.6339784
9.0452461 -18.955236 1.9594628
2.6972568 -5.6523771 -1.6395499
9.0581131 -18.982201 2.4596074
2.9912913 -6.2685561 -1.6457322
8.3581047 -17.515261 2.7275147
3.3397298 -6.998745 -1.648324
3.7734506 -7.9076509 -1.6508162
4.3356109 -9.1555042 -1.6643294
5.0248561 -10.610982 -1.6500365
6.1825418 -13.055666 -1.6892959
7.2503204 -15.310493 -1.5804634
7.3246942 -15.467547 -1.1967421
7.3234935 -15.465013 -0.79797417
1.6531461 -3.4909468 -1.6133806
8.8963509 -18.786413 -0.4825989
1.7740912 -3.7463465 -1.6186388
8.8893328 -18.771593 0
8.9014854 -18.797255 0.4828774
2.0581527 -4.3461986 -1.6249138
8.9190149 -18.834272 0.97182357
2.2356429 -4.7210045 -1.6299707
8.6354208 -18.235407 1.4108945
2.4380126 -5.1483479 -1.633427
2.6821303 -5.6638517 -1.6405628
2.9710135 -6.2738857 -1.64481
8.2925386 -17.511343 2.7230611
3.3147635 -6.9997821 -1.6462449
3.7440841 -7.9063778 -1.6482241
4.3101034 -9.1719007 -1.6649778
4.9967179 -10.633016 -1.6511497
6.1446195 -13.075751 -1.6895281
7.2023177 -15.326533 -1.5799062
7.2550063 -15.438655 -1.1928357
7.282671 -15.497524 -0.79853314
1.6459199 -3.5025179 -1.6164639
8.8261118 -18.781965 -0.48180974
1.7677212 -3.7617109 -1.6230036
8.8216848 -18.772547 0
1.886378 -4.0142126 -1.6143351
8.8337641 -18.798252 0.4822275
2.0476651 -4.3574314 -1.6268345
8.8511944 -18.835342 0.97051924
2.2216246 -4.7276173 -1.6299707
8.5719385 -18.241087 1.4093598
2.4235432 -5.1573 -1.6339784
2.6620212 -5.6647811 -1.6385368
2.9523842 -6.2826738 -1.64481
8.2321186 -17.517948 2.7202778
3.2906506 -7.0025048 -1.6445816
3.7180998 -7.912117 -1.6471132
4.2762666 -9.1746635 -1.6630324
4.959106 -10.639685 -1.649758
6.104351 -13.09679 -1.6897604
7.1541338 -15.349084 -1.5799062
7.20647 -15.46137 -1.1928357
7.2373257 -15.52757 -0.79890585
1.6356883 -3.5093439 -1.6172347
8.7484808 -18.76973 -0.48078844
1.755895 -3.7672455 -1.6230036
8.7457695 -18.763912 0
1.874552 -4.021822 -1.6150191
8.7653742 -18.805975 0.4817169
2.0331655 -4.3621249 -1.6261944
8.7793188 -18.835892 0.96912169
2.208375 -4.7380342 -1.6311622
8.5027924 -18.242609 1.4074066
2.4105783 -5.1718583 -1.6361835
2.648299 -5.6818843 -1.6410694
2.9367435 -6.3007379 -1.6471156
8.1653309 -17.518591 2.7163808
3.2744215 -7.0252204 -1.6474924
3.684922 -7.9059434 -1.6434101
4.2531166 -9.1919432 -1.6640052
4.9302073 -10.65529 -1.6500365
6.0669208 -13.111983 -1.6895281
7.105391 -15.356351 -1.5786058
7.1423216 -15.436167 -1.1893479
7.1377277 -15.426238 -0.79266363
1.6274322 -3.5172477 -1.6187764
8.6825991 -18.765053 -0.48004571
1.7492799 -3.7805882 -1.6266409
8.6798992 -18.759218 0
1.8641032 -4.0287471 -1.6157032
8.7044287 -18.812233 0.48125267
2.024159 -4.3746638 -1.6287552
8.7082291 -18.820444 0.96707201
2.1895235 -4.7320538 -1.626992
8.4442768 -18.249987 1.4061511
2.3896677 -5.1646109 -1.6317732
2.6332347 -5.6910133 -1.6415759
2.9175029 -6.3053813 -1.6461933
8.1047354 -17.516159 2.7124841
3.2539694 -7.0325613 -1.6470766
3.6719093 -7.9358234 -1.6474835
4.2274303 -9.203784 -1.6640052
4.9062185 -10.681614 -1.6519849
6.0219893 -13.110823 -1.6872052
7.055829 -15.361656 -1.5771194
7.144155 -15.553956 -1.1968815
7.0721054 -15.397092 -0.79014814
1.6206846 -3.5284867 -1.6218598
8.6176434 -18.761972 -0.47934937
1.7348274 -3.7769935 -1.6230036
8.6149569 -18.756124 0
1.8504919 -4.0288134 -1.613651
8.6418457 -18.814665 0.48069561
2.0063984 -4.3682466 -1.6242737
8.6431293 -18.817459 0.96567458
2.1794879 -4.7450895 -1.629375
8.3799553 -18.244488 1.4039189
2.3760386 -5.1730113 -1.6323246
8.4297581 -18.352917 1.8842201
2.6108711 -5.684279 -1.6375238
2.9023199 -6.3188095 -1.6475767
8.0475206 -17.520725 2.7097006
3.2302349 -7.032732 -1.6449974
7.8214049 -17.028435 3.0786691
3.658757 -7.9656925 -1.6515567
4.1935248 -9.1975956 -1.6607627
4.8739066 -10.689866 -1.6511497
5.9944191 -13.14747 -1.6897604
7.0211663 -15.399419 -1.5789772
7.0262017 -15.410463 -1.1843255
7.0340552 -15.427688 -0.79070717
1.6108251 -3.5329986 -1.6218598
8.5602407 -18.775049 -0.47907084
1.7219548 -3.7767379 -1.6208211
8.5608883 -18.776468 0
1.842353 -4.0408053 -1.6163872
8.5784893 -18.815071 0.48009214
1.9957645 -4.3772802 -1.625554
8.5814314 -18.821524 0.96464968
2.1693969 -4.7581058 -1.631758
8.3173876 -18.242401 1.4019656
2.360786 -5.1778765 -1.6317732
8.3842583 -18.389069 1.8855206
2.5949876 -5.6915474 -1.6375238
2.8814342 -6.3198066 -1.6457322
7.986239 -17.516098 2.7055252
3.2032795 -7.0257049 -1.641255
3.6332376 -7.9687252 -1.6500757
4.1735377 -9.2261791 -1.6636808
4.851964 -10.725934 -1.65449
5.9562035 -13.167007 -1.6899928
6.9680591 -15.403854 -1.5773053
6.9829149 -15.436695 -1.184744
6.9923673 -15.457591 -0.79117304
1.6033781 -3.544488 -1.6249431
8.4995527 -18.789431 -0.47879231
1.7130452 -3.7869225 -1.6230036
8.4977217 -18.785383 0
1.8303558 -4.0462537 -1.6163872
8.5127382 -18.818581 0.47953507
1.9835494 -4.3849092 -1.6261944
8.5140228 -18.821419 0.96334535
2.1513357 -4.7558241 -1.6287793
8.255003 -18.248821 1.4005705
2.3541291 -5.2041264 -1.6378373
8.3304825 -18.41568 1.8857064
2.5764947 -5.6956964 -1.6365108
2.8642747 -6.3318739 -1.6466544
7.9244385 -17.518063 2.7021852
3.1896765 -7.0512195 -1.6449974
7.7183199 -17.062408 3.0767233
3.6087687 -7.9776802 -1.6497053
4.1437149 -9.2287979 -1.6620597
4.8284812 -10.753896 -1.6567167
5.9210372 -13.187215 -1.6904573
6.9029913 -15.374203 -1.572289
6.938962 -15.454316 -1.1846044
6.9262605 -15.426027 -0.78856432
1.5889379 -3.5388503 -1.6203181
8.4347639 -18.785736 -0.47809601
1.700174 -3.786593 -1.6208211
8.4353991 -18.787149 0
1.8175094 -4.0479202 -1.6150191
8.4478674 -18.81492 0.47883874
1.9736247 -4.395617 -1.6281151
8.4516087 -18.823252 0.96222734
2.1380463 -4.7618132 -1.6287793
8.1917505 -18.244501 1.3984778
2.3356495 -5.2019114 -1.6350808
8.2610779 -18.398905 1.8816192
2.5645411 -5.7116942 -1.6390433
2.8441899 -6.3345218 -1.6452711
7.8649416 -17.516638 2.6985667
3.1691716 -7.0583148 -1.6445816
7.6633663 -17.067694 3.0738053
3.5880859 -7.9913125 -1.6504459
4.1155119 -9.2392492 -1.6617355
4.7957473 -10.766366 -1.6564384
5.8778434 -13.195651 -1.6892959
6.8524852 -15.383704 -1.5711744
6.87116 -15.42563 -1.1808376
6.8739572 -15.431909 -0.78781897
1.5806839 -3.5486066 -1.6226306
8.3692265 -18.788761 -0.47753894
1.6896896 -3.7933226 -1.6215485
8.3690405 -18.788343 0
1.8070208 -4.0567288 -1.6163872
8.3814297 -18.816156 0.47823524
1.9559482 -4.3910685 -1.6242737
8.3892202 -18.833647 0.96148205
2.1223547 -4.764648 -1.6275877
8.1286535 -18.248678 1.3969431
2.3202052 -5.2088184 -1.6350808
8.1999702 -18.408783 1.880133
2.5420725 -5.7069068 -1.6354978
2.8261747 -6.3447108 -1.6457322
7.8048759 -17.521805 2.6957831
3.1506038 -7.0730481 -1.6458291
7.6070714 -17.077738 3.0715356
3.5603611 -7.9929457 -1.6485944
4.0872822 -9.2496147 -1.6614112
4.7573776 -10.766056 -1.6542116
5.84027 -13.216666 -1.6897604
6.7963452 -15.380287 -1.5687591
6.8156834 -15.424049 -1.1791635
6.8144121 -15.421172 -0.78623515
1.5686562 -3.5499053 -1.621089
8.3045511 -18.793392 -0.47702828
