# .PCD v0.7 - Point Cloud Data file format
VERSION 0.7
FIELDS x y z
SIZE 4 4 4
TYPE F F F
COUNT 1 1 1
WIDTH 1543
HEIGHT 1
VIEWPOINT 0 0 0 1 0 0 0
POINTS 1543
DATA ascii
-16.941402 3.1582563 -0.80365735
-16.658438 3.1055055 -0.39342299
-20.990374 3.9130752 0
-20.994547 3.9138532 0.49582905
-21.006866 3.9161499 0.99651271
-61.336914 11.434573 4.3629885
-76.962112 14.347459 7.3039079
-1.0177095 0.19285016 -0.14557506
-12.202222 2.3122516 -1.4523485
-1.0682679 0.20243068 -0.101438
-1.0996971 0.20838635 -0.07826677
-16.670761 3.1590142 -0.39393362
-21.002253 3.9798071 0
-21.006416 3.9805961 0.49638611
-21.012821 3.9818099 0.99735129
-21.982182 4.1654983 1.5644982
-1.0074427 0.19382061 -0.14418334
-12.184012 2.3440666 -1.4509546
-1.0735649 0.20654178 -0.10199536
-1.1069477 0.21296424 -0.078824811
-17.3153 3.3312683 -0.82229072
-16.685434 3.2100892 -0.39449069
-21.006767 4.0414648 0
-21.020742 4.0441537 0.49698958
-21.025164 4.0450039 0.99846929
-21.108414 4.0610209 1.5031124
-77.22628 14.857464 7.336977
-1.0049537 0.19625364 -0.143905
-12.17352 2.377321 -1.45049
-1.0749383 0.20992066 -0.10218114
-1.1102649 0.21681947 -0.079103842
-16.696028 3.2605047 -0.39495492
-21.018953 4.1047125 0
-21.025066 4.105906 0.49736097
-21.037312 4.1082978 0.99958724
-21.122446 4.1249232 1.5049262
-77.737587 15.181082 7.389554
-1.004367 0.19923435 -0.143905
-12.166412 2.4134278 -1.45049
-1.0782174 0.21388391 -0.10255271
-18.769548 3.7232792 -1.3380687
-16.7726 3.3271484 -0.79741514
-16.717661 3.3162503 -0.39569765
-21.030224 4.1717253 0
-21.04221 4.1741023 0.49805725
-21.040709 4.1738048 1.0003326
-77.901215 15.453114 7.4094334
-79.071938 15.685349 9.4270229
-1.0037714 0.20221354 -0.143905
-12.157252 2.4491241 -1.4502578
-1.0678174 0.21511585 -0.10162379
-18.598042 3.7466455 -1.3266287
-16.901707 3.4049125 -0.80403
-16.729311 3.3701828 -0.39620832
-20.996187 4.2297611 0
-20.968971 4.224278 0.49661821
-20.947935 4.2200403 0.99651271
-1.0051074 0.2055876 -0.14418334
-12.146039 2.4843862 -1.4497931
-1.0730273 0.21948011 -0.10218114
-18.551659 3.7946103 -1.3241173
-17.044201 3.4862707 -0.811297
-16.756456 3.4274144 -0.39709035
-21.010977 4.2976465 0
-21.028824 4.3012967 0.49833581
-21.064501 4.3085947 1.0026617
-78.722527 16.102135 9.3965921
-1.0142256 0.21040517 -0.14557506
-12.146833 2.5199094 -1.4507223
-1.0704603 0.2220713 -0.10199536
-1.1135143 0.231003 -0.079522386
-17.096996 3.5468407 -0.81427842
-16.799679 3.4851611 -0.39834368
-21.057642 4.3684926 0
-21.071547 4.371377 0.49963561
-21.07782 4.3726783 1.003873
-21.340403 4.4271522 1.5240395
-77.496262 16.076912 7.3839808
-1.017473 0.2142297 -0.14613177
-12.11209 2.5502098 -1.4474701
-1.0795399 0.22729793 -0.10292427
-1.1108716 0.23389484 -0.079382867
-21.084303 4.4393158 -1.0048046
-16.83231 3.5440557 -0.39936498
-21.071987 4.4367228 0
-21.080006 4.4384112 0.50014621
-21.088213 4.4401388 1.0049909
-21.342791 4.4937406 1.5251555
-77.976303 16.417969 7.4343281
-1.0168707 0.21707027 -0.14613177
-12.122405 2.5877562 -1.4495608
-1.075006 0.22948031 -0.10255271
-1.098507 0.23449707 -0.078545786
-21.085499 4.5010977 -1.0054568
-21.102728 4.5047755 -0.50098187
-21.084944 4.5009789 0
-21.092951 4.5026884 0.50074971
-21.099176 4.5040174 1.006109
-21.343817 4.5562406 1.5261321
-1.0181193 0.22068311 -0.14641011
-12.100626 2.6228788 -1.4479346
-1.076226 0.23327805 -0.10273849
-1.097765 0.23794675 -0.078545786
-21.082426 4.5697351 0
-21.100197 4.5735865 0.50126034
-21.112257 4.576201 1.0074133
-21.339148 4.6253805 1.5268297
-1.0194726 0.22377248 -0.14668846
-12.095658 2.6549761 -1.448167
-1.0775566 0.23652181 -0.10292427
-1.1010358 0.24167547 -0.078824811
-21.11972 4.6357422 -1.008345
-21.117445 4.6352429 -0.5019567
-21.089928 4.6292024 0
-21.111586 4.6339569 0.50181741
-21.117767 4.6353135 1.0082518
-21.340607 4.6842265 1.5278063
-79.939529 17.546589 7.6355319
-1.0168314 0.2265435 -0.14641011
-12.081441 2.6916673 -1.4474701
-1.0748645 0.23947291 -0.10273849
-1.1080606 0.24686877 -0.079382867
-21.128448 4.7072825 -1.009463
-21.116274 4.7045698 0
-21.126198 4.7067809 0.50251377
-21.1304 4.7077174 1.0095561
-21.349154 4.756454 1.5294805
-1.0181267 0.2298183 -0.14668846
-12.073877 2.7253954 -1.4474701
-1.076134 0.24291208 -0.10292427
-1.1170977 0.25215867 -0.080080427
-21.132763 4.770227 -1.0103015
-21.128574 4.7692814 -0.5028851
-21.124672 4.7684007 0.5027923
-21.121069 4.7675872 1.0097424
-21.355249 4.8204479 1.5308756
-1.0193304 0.23345767 -0.1469668
-12.069128 2.7641976 -1.4479346
-1.0850712 0.24851431 -0.10385319
-19.282433 4.4162641 -1.383271
-21.144938 4.842834 -1.0116059
-21.123232 4.837863 -0.5031172
-21.125027 4.838274 0
-21.12908 4.8392024 0.5032565
-21.123514 4.8379278 1.0105809
-21.351669 4.890182 1.5317127
-79.908989 18.30159 7.6481657
-1.011039 0.23416029 -0.14585343
-12.052661 2.7914398 -1.4467732
-1.0767006 0.24936774 -0.10311005
-19.248257 4.4579659 -1.3815968
-21.823978 5.054512 -1.04468
-21.148357 4.898036 -0.50399923
-21.130676 4.8939404 0
-21.134722 4.8948779 0.50367427
-21.142773 4.8967423 1.0120716
-21.359093 4.9468427 1.5331078
-79.780602 18.477476 7.6401763
-1.0160824 0.23869421 -0.14668846
-12.036098 2.8274741 -1.4458441
-1.0584646 0.24865048 -0.101438
-19.245811 4.5211525 -1.3824338
-21.843002 5.1312747 -1.046357
-21.160116 4.9708538 -0.5046491
-21.146347 4.9676194 0
-21.150621 4.9686236 1.0131897
-21.374521 5.0212212 1.53534
-1.0134852 0.24107224 -0.14641011
-12.022358 2.8596931 -1.445147
-1.0655154 0.25344837 -0.10218114
-19.176823 4.5614867 -1.3783879
-21.877176 5.2038054 -1.0486861
-21.161716 5.0336227 -0.5050205
-21.161581 5.0335908 0
-21.200619 5.0428762 0.5059489
-21.161932 5.0336738 1.0144008
-61.127094 14.53997 4.3936815
-1.0242748 0.24704123 -0.14808019
-12.013314 2.8974488 -1.445147
-1.0724572 0.25866216 -0.10292427
-1.1074624 0.26710495 -0.079661898
-21.880142 5.2771945 -1.0496179
-21.176895 5.1075807 -0.50576323
-21.168993 5.1056747 0
-21.21966 5.1178946 0.50678456
-21.169317 5.1057529 1.0155188
-60.937588 14.697321 4.383357
-1.023581 0.24990065 -0.14808019
-12.014825 2.9333417 -1.4463086
-1.0678617 0.26071152 -0.10255271
-1.1125269 0.27161622 -0.080080427
-21.185862 5.1723905 -0.5063203
-21.181854 5.1714125 0
-21.214998 5.1795039 0.50701666
-21.18021 5.1710105 1.01673
-59.789597 14.597241 4.3036952
-41.840057 10.214978 4.0181336
-1.0209565 0.25228277 -0.14780185
-12.00273 2.9659269 -1.4458441
-1.0709959 0.26464775 -0.10292427
-1.1020796 0.27232867 -0.079382867
-21.869724 5.4041038 -1.0505496
-21.202391 5.239203 -0.50706303
-21.194513 5.2372565 0
-21.262564 5.2540717 0.50850213
-21.192841 5.2368426 1.0180342
-59.603336 14.728243 4.293232
-41.29134 10.20327 3.968158
-42.337391 10.461754 5.0999451
-1.0220799 0.25597039 -0.14808019
-11.999133 3.0050709 -1.4465408
-1.0817493 0.27091402 -0.10403897
-1.0992832 0.27530524 -0.079243354
-21.43597 5.3684387 -1.0305187
-21.212978 5.3125925 -0.50771296
-21.199293 5.3091655 0
-21.205351 5.3106823 1.0194318
-59.59547 14.92513 4.2960219
-40.747181 10.204751 3.9189255
-42.281193 10.58893 5.0971575
-1.0194414 0.25833687 -0.14780185
-11.99262 3.0390527 -1.4467732
-1.0771279 0.27295527 -0.10366741
-1.0907742 0.27641335 -0.078685299
-21.32794 5.4047184 -1.0260466
-21.221321 5.3776999 -0.50827003
-21.215408 5.3762016 0
-21.21949 5.3772359 1.0208293
-59.582573 15.098834 4.2981148
-40.759064 10.328764 3.922827
-1.0148791 0.2601988 -0.14724515
-11.980239 3.071542 -1.4463086
-1.0763615 0.27596191 -0.10366741
-1.0880655 0.27896261 -0.078545786
-21.237122 5.444859 0
-21.235273 5.4443855 0.50896639
-21.231485 5.4434137 1.0221337
-41.176422 10.556977 2.9724629
-40.753208 10.448472 3.9250562
-42.327229 10.852026 5.1099343
-1.0256511 0.26601529 -0.14891523
-11.958155 3.1014953 -1.4446825
-1.0659488 0.276467 -0.10273849
-1.0950072 0.28400365 -0.079103842
-21.283884 5.5202384 -1.0253944
-21.258694 5.5137048 -0.50989479
-21.254744 5.5126801 0
-21.260632 5.5142074 0.50994122
-21.272284 5.5172291 1.0248355
-41.129395 10.667417 2.9712071
-40.679535 10.55074 3.920783
-42.046787 10.905354 5.0797348
-1.0286884 0.27006313 -0.14947191
-11.945058 3.1359541 -1.4442179
-1.0709021 0.28114554 -0.10329585
-1.09223 0.28674477 -0.07896433
-21.313787 5.5955405 -1.0276304
-21.273184 5.5848813 -0.51063752
-21.263441 5.5823236 0
-21.271252 5.5843735 0.51059109
-21.279005 5.5864091 1.0259534
-41.170895 10.808657 2.9765089
-41.297146 10.841802 3.9833925
-42.164112 11.069407 5.0978546
-1.0240544 0.27209702 -0.14891523
-11.926101 3.1688321 -1.4430563
-1.0835352 0.28790137 -0.10459632
-1.0894461 0.28947192 -0.078824811
-21.380117 5.6808171 -1.0316367
-21.285505 5.6556783 -0.51133382
-21.279644 5.6541209 0
-21.285505 5.6556783 0.51133382
-21.287437 5.6561913 1.0271647
-41.439442 11.010693 2.9982729
-40.481491 10.756159 3.9077783
-41.825825 11.113357 5.0609183
-1.02133 0.27462003 -0.14863689
-11.895545 3.19853 -1.440501
-1.0788301 0.2900809 -0.10422476
-1.0905092 0.29322124 -0.07896433
-21.426836 5.7613482 -1.0347112
-21.301456 5.7276359 -0.51212305
-19.584389 5.2659426 0
-21.297596 5.7265978 0.51203018
-21.299501 5.7271104 1.0285622
-41.583847 11.181261 3.0111079
-40.447475 10.875708 3.9075925
-41.846382 11.251852 5.0674229
-1.0225188 0.27781227 -0.14891523
-11.890963 3.2307038 -1.4409657
-1.0684586 0.29029384 -0.10329585
-1.0878124 0.29555216 -0.078824811
-21.382759 5.8095684 -1.0333136
-19.499125 5.2977962 0
-21.305685 5.7886276 0.51258725
-21.313353 5.7907109 1.0299597
-41.019192 11.14467 2.9723232
-40.472672 10.996184 3.9127944
-42.039146 11.421785 5.0943699
-1.0311891 0.28364941 -0.15030695
-11.859688 3.2622471 -1.4384104
-1.0771415 0.29628959 -0.10422476
-1.0772601 0.2963222 -0.07812725
-19.496416 5.3628836 -0.46946159
-19.360899 5.3256068 0
-21.316311 5.8634825 0.51328355
-21.325878 5.8661141 1.0314503
-40.691582 11.193043 2.9511175
-40.480167 11.13489 3.9168816
-41.244595 11.34516 5.0023785
-41.180725 11.327592 6.0025363
-1.0303929 0.28652799 -0.15030695
-11.8601 3.2980144 -1.4395719
-1.0993326 0.30569848 -0.10645416
-1.0860394 0.30200198 -0.078824811
-19.360001 5.3835602 -0.466537
-19.230335 5.3475037 0
-21.328749 5.9310226 0.51397985
-21.328659 5.9309978 1.032382
-41.006153 11.402846 2.9762297
-40.604317 11.291104 3.9319303
-41.329491 11.492759 5.0165491
-41.154655 11.44414 6.0033712
-1.0276318 0.28904754 -0.15002862
-11.859824 3.3358767 -1.4407333
-1.0773342 0.3030276 -0.10441054
-1.0716945 0.30144128 -0.077848226
-19.320459 5.43437 -0.93595427
-19.234232 5.4101157 -0.46389097
-19.083467 5.3677096 0
-21.338005 6.0018559 0.51462978
-21.347511 6.0045295 1.0341522
-40.837704 11.48664 2.9664638
-40.580227 11.414219 3.9328589
-41.161358 11.577677 5.000288
-41.008038 11.534552 5.986949
-1.0229596 0.29101148 -0.14947191
-11.863249 3.3748562 -1.4423594
-1.0917532 0.31058189 -0.10589682
-1.0803902 0.30734935 -0.078545786
-19.27927 5.4845653 -0.93474317
-19.127705 5.4414487 -0.46170914
-18.969349 5.396399 0
-21.343182 6.0717072 0.51518685
-21.354582 6.0749502 1.0353633
-40.586597 11.546073 2.9506989
-40.580654 11.544382 3.936203
-39.989983 11.376348 4.8620682
-41.44606 11.790573 6.0559793
-1.0354149 0.29787871 -0.15142034
-11.849365 3.4089458 -1.4418949
-1.0736032 0.30886507 -0.10422476
-1.0756388 0.30945072 -0.07826677
-19.076675 5.4881721 -0.92570597
-18.986578 5.4622517 -0.45869178
-18.866762 5.4277821 0
-21.353895 6.1433058 0.51588321
-21.36334 6.1460233 1.0366677
-39.55513 11.379622 2.8781521
-40.475414 11.64438 3.9293294
-39.858692 11.466953 4.8502212
-40.992157 11.79304 5.9947424
-1.0441412 0.30335101 -0.15281208
-11.838492 3.4393995 -1.4416625
-1.0766155 0.31278566 -0.10459632
-1.0786568 0.31337872 -0.078545786
-19.014278 5.5241575 -0.92337674
-18.90885 5.4935279 -0.45715985
-18.777584 5.4553919 0
-21.36846 6.2081108 0.51662594
-21.375956 6.210288 1.0380652
-41.184845 11.965302 4.0012274
-39.952526 11.60728 4.8653207
-40.87746 11.875998 5.9824958
-1.0355824 0.30439547 -0.15169869
-11.83144 3.4776921 -1.4421271
-1.0832697 0.31841248 -0.10533947
-1.0872377 0.31957886 -0.079243354
-18.943161 5.5680866 -0.92076808
-18.83395 5.535985 -0.45576721
-18.68552 5.4923563 0
-21.375708 6.2831006 0.51727581
-21.383175 6.285295 1.0393695
-22.805195 6.7032795 1.6621573
-40.510849 11.907617 3.9393613
-39.894901 11.726567 4.8627653
-40.739243 11.974751 5.9677429
-1.0309312 0.3061586 -0.151142
-11.823586 3.5112846 -1.4423594
-1.0766494 0.31973568 -0.10478211
-16.641291 4.9420118 -1.2139021
-18.837528 5.5942345 -0.91638923
-18.722582 5.5600986 -0.45344612
-18.608757 5.5262957 0
-21.384912 6.350739 0.51792574
-21.392351 6.3529477 1.0406739
-22.663982 6.730588 1.6532284
-40.244545 11.951538 3.9166958
-40.478985 12.02116 4.9380312
-40.773994 12.10877 5.9777637
-10.114815 3.0345891 -1.4841421
-11.809931 3.5431478 -1.4418949
-1.0757523 0.32274106 -0.10478211
-16.627424 4.9884648 -1.2139021
-18.756767 5.6272984 -0.91322154
-18.653357 5.5962734 -0.45214632
-18.585588 5.575942 0
-21.397738 6.4196267 0.51866847
-21.403231 6.4212747 1.0420713
-22.490309 6.7474141 1.641928
-40.289211 12.087339 3.9243131
-40.13892 12.04225 4.9006305
-40.557907 12.167951 5.9510422
-10.12093 3.0691857 -1.4863688
-11.805069 3.5799034 -1.4425918
-1.0576391 0.32073051 -0.10311005
-16.639282 5.0458851 -1.2158554
-18.743814 5.6840878 -0.91340798
-18.650064 5.6556573 -0.45247129
-18.578533 5.6339655 0
-21.411123 6.4929523 0.51945764
-21.422321 6.4963484 1.0439347
-40.443737 12.264619 3.9428916
-40.359646 12.239119 4.9319911
-40.925323 12.410661 6.0103297
-10.101769 3.0980632 -1.484977
-11.793764 3.6169729 -1.4425918
-1.0680492 0.32755488 -0.10422476
-16.634792 5.1016445 -1.2166924
-18.720135 5.741188 -0.91312844
-18.668524 5.7253599 -0.45335329
-18.545444 5.687613 0
-21.421204 6.5695658 0.52020037
-21.428547 6.5718179 1.0452391
-22.303707 6.8402166 1.6313249
-39.951897 12.252655 3.8986747
-40.396965 12.389152 4.9412837
-40.785778 12.508395 5.9955778
-10.086058 3.1221547 -1.4838637
-11.778562 3.6460721 -1.4418949
-1.0862111 0.33623832 -0.1060826
-16.634722 5.1493039 -1.217669
-18.735575 5.7996264 -0.91461909
-18.674482 5.780715 -0.45386392
-18.56106 5.745605 0
-21.436403 6.6356721 0.52098954
-21.437988 6.6361623 1.0465434
-22.316217 6.9080195 1.6335571
-40.041431 12.394887 3.9105651
-39.943119 12.364455 4.8897123
-10.08943 3.1579673 -1.4858122
-11.763257 3.6818714 -1.4414303
-1.0642445 0.33310598 -0.10403897
-16.637503 5.2074986 -1.2190642
-18.774462 5.8763614 -0.91741407
-18.658138 5.8399529 -0.45391035
-18.558187 5.8086686 0
-21.445982 6.7125406 0.52173227
-21.449448 6.7136254 1.0481273
-22.326775 6.9882269 1.6359289
-40.443192 12.658623 3.9536667
-39.832039 12.467332 4.8808851
-40.22163 12.589273 5.9232078
-10.071129 3.1831465 -1.4844204
-11.752929 3.7147071 -1.4414303
-1.0879941 0.34387848 -0.10645416
-16.638113 5.2587504 -1.2201803
-18.748453 5.9257579 -0.9169482
-18.655102 5.8962526 -0.45423532
-18.547615 5.8622799 0
-21.469095 6.7856617 0.5227536
-21.462997 6.7837343 1.049711
-22.337608 7.0601697 1.6381611
-40.312744 12.741508 3.9443777
-40.016781 12.647964 4.9078317
-40.698086 12.863301 5.9986396
-10.067862 3.2130649 -1.4852555
-11.725477 3.7420778 -1.4393395
-1.094618 0.34933719 -0.1071973
-16.64237 5.3112588 -1.2215754
-18.764187 5.9884167 -0.91853207
-18.674755 5.9598751 -0.45511732
-18.557846 5.9225655 0
-21.514824 6.8662572 0.52433187
-21.476324 6.8539705 1.0512948
-22.359621 7.1358666 1.6412303
-40.10627 12.799545 3.9276571
-39.599037 12.637667 4.8609071
-10.043203 3.2380588 -1.4830287
-11.759699 3.7914791 -1.4449148
-1.1068437 0.35686073 -0.10849779
-16.641731 5.3655095 -1.2226915
-18.767254 6.050806 -0.91955698
-18.681728 6.0232315 -0.45572078
-18.551613 5.9812803 0
-21.484417 6.9268546 1.0526924
-22.378227 7.2150302 1.6441602
-40.088963 12.925201 3.9297006
-39.708836 12.802643 4.8790264
-10.040512 3.272052 -1.4841421
-11.725063 3.8210218 -1.4421271
-1.1095036 0.36157057 -0.10886936
-16.645655 5.4245687 -1.2242261
-18.75005 6.1103592 -0.91965008
-18.657009 6.0800385 -0.45558152
-18.549843 6.045115 0
-21.592247 7.0365882 0.52725649
-21.496738 7.0054641 1.0543693
-22.383902 7.2945771 1.6462528
-40.010296 13.038754 3.9259853
-39.817623 12.975965 4.8973784
-40.856899 13.31465 6.039278
-10.018168 3.2957411 -1.4821937
-11.710576 3.8525033 -1.4416625
-1.0782239 0.35471025 -0.10589682
-16.655083 5.4791288 -1.2260398
-18.757587 6.1708035 -0.9208613
-18.664652 6.1402302 -0.45618501
-18.555691 6.1043844 0
-21.564917 7.0943489 0.52707076
-21.503664 7.0741982 1.0556737
-22.403246 7.3701391 1.6491824
-40.155327 13.210155 3.9438202
-39.945404 13.141095 4.9175882
-40.810162 13.42558 6.0378861
-10.020204 3.32745 -1.4838637
-11.709198 3.8883214 -1.4428241
-1.0999075 0.3652508 -0.10812622
-16.656757 5.5312777 -1.2272955
-18.770618 6.2332358 -0.92235196
-18.742311 6.2238359 -0.45850611
-18.551857 6.1605911 0
-21.569691 7.1627355 0.52767426
-21.517954 7.1455545 1.0573508
-22.420446 7.4452496 1.6519728
-39.866928 13.238773 3.919111
-40.042404 13.297045 4.934082
-40.795063 13.546984 6.0412264
-9.9971418 3.3527582 -1.4819154
-11.690076 3.9205203 -1.4418949
-1.106371 0.3710455 -0.10886936
-16.659189 5.5870199 -1.2286905
-18.825911 6.3136768 -0.9259854
-18.672577 6.2622528 -0.45725268
-18.550562 6.221333 0
-21.609005 7.2470479 0.52915972
-21.530752 7.2208042 1.0590277
-22.43609 7.5244288 1.6547631
-39.616016 13.286089 3.8983035
-39.961338 13.4019 4.9289713
-40.519974 13.589251 6.006433
-10.001463 3.3833625 -1.4838637
-11.67789 3.9504757 -1.4416625
-1.0940778 0.37011203 -0.10775466
-16.665295 5.6376486 -1.2302252
-18.767683 6.3488588 -0.92393583
-18.697786 6.3252139 -0.45827398
-18.55884 6.2782102 0
-21.625944 7.3157701 0.53004175
-21.542053 7.2873917 1.0605184
-22.473009 7.6023216 1.6589485
-40.04702 13.547378 3.9441919
-39.852726 13.481649 4.9199114
-40.103409 13.566452 5.9499288
-9.973917 3.4090016 -1.4813585
-11.665421 3.9871438 -1.4416625
-1.0797193 0.36903906 -0.10645416
-16.670156 5.6977201 -1.2318994
-18.842167 6.4400954 -0.92859405
-18.700529 6.3916845 -0.45883104
-18.554167 6.3416595 0
-21.635019 7.3946691 0.53083092
-21.554972 7.3673096 1.0622885
-22.50943 7.6935353 1.6634128
-40.19458 13.738173 3.9629562
-39.855289 13.622206 4.9254866
-9.9643583 3.4368415 -1.4813585
-11.656119 4.0203528 -1.4418949
-1.0824497 0.37335151 -0.10682574
-16.673038 5.7507558 -1.2332944
-18.707176 6.4523578 -0.45943451
-18.562855 6.4025788 0
-21.657757 7.4700532 0.53189862
-21.568308 7.4392004 1.0639656
-22.819809 7.8708601 1.6879672
-40.980602 14.134763 4.0443296
-39.764515 13.715318 4.9189825
-41.308464 14.247848 6.1411529
-9.9441614 3.4648685 -1.4799669
-11.630301 4.0523744 -1.4402688
-1.0775105 0.37543961 -0.10645416
-16.6775 5.8109822 -1.2349685
-18.784756 6.5452185 -0.92766249
-18.705696 6.5176716 -0.45989874
-18.567202 6.4694152 0
-21.60775 7.5288415 0.53124869
-21.588224 7.522038 1.0661085
-22.73468 7.9215002 1.6835027
-40.939758 14.26474 4.0447011
-40.156429 13.991802 4.9728765
-41.067123 14.309118 6.1119261
-9.9481354 3.4954867 -1.4819154
-11.638393 4.0893946 -1.4425918
-1.1065838 0.38882151 -0.10942671
-16.681051 5.8612385 -1.2363638
-18.822214 6.6135812 -0.93036425
-18.73007 6.5812039 -0.46092001
-18.597374 6.5345783 0
-21.631355 7.6006317 0.53231645
-21.598616 7.5891275 1.0675991
-22.610336 7.9446173 1.6758296
-41.356926 14.531627 4.0896606
-40.738125 14.314197 5.0495358
-40.83519 14.348303 6.0829782
-9.9277735 3.5234089 -1.4805236
-11.623616 4.1252704 -1.4423594
-1.0584402 0.37564489 -0.10478211
-16.683239 5.9209518 -1.2378983
-18.876656 6.6994047 -0.93409091
-18.745106 6.6527171 -0.46180204
-18.60314 6.6023331 0
-21.633751 7.6779094 0.53296632
-21.612322 7.6703038 1.0694624
-22.553305 8.0042629 1.6734579
-37.458275 13.294101 3.7082465
-40.741627 14.459375 5.0555754
-9.9147854 3.5480561 -1.4799669
-11.622128 4.1590371 -1.4435209
-16.684586 5.9706635 -1.239154
-18.866577 6.7515001 -0.93446362
-18.797276 6.7267008 -0.4635196
-18.640398 6.6705608 0
-21.630516 7.7405901 0.53338414
-21.631668 7.7410021 1.071419
-22.464645 8.0390873 1.6684353
-40.764442 14.587762 4.0393133
-40.834553 14.612852 5.0718365
-9.9222155 3.585916 -1.4827503
-11.597795 4.1914749 -1.4421271
-16.69014 6.0318627 -1.2409676
-18.91667 6.8365369 -0.93800402
-18.785454 6.789115 -0.46375173
-18.673899 6.7487984 0
-21.639183 7.8204603 1.0730027
-22.482433 8.1252136 1.6716441
-37.401684 13.517072 3.71029
-40.767895 14.73363 5.0692811
-9.9065819 3.6115758 -1.4819154
-11.586045 4.2238469 -1.4421271
-16.691975 6.0852814 -1.2423629
-18.951939 6.9091806 -0.94070578
-18.792723 6.8511362 -0.46440163
-18.715107 6.8228412 0
-21.652922 7.8938603 1.074773
-42.208862 15.387801 3.1415527
-40.551811 14.783702 4.026866
-40.681801 14.831091 5.0637059
-42.919838 15.646996 6.4203343
-9.9020338 3.6412773 -1.4827503
-11.566748 4.2534432 -1.441198
-16.697388 6.1401348 -1.244037
-18.945694 6.9669051 -0.94135797
-18.871099 6.9394741 -0.46681556
-18.724138 6.8854322 0
-21.710396 7.9835696 0.53705138
-21.66267 7.9660196 1.0763568
-41.553406 15.280444 3.095932
-40.585125 14.924378 4.034297
-40.61412 14.935041 5.0604539
-42.825787 15.748338 6.4128189
-9.8744755 3.6644406 -1.4802452
-11.557801 4.2891269 -1.4416625
-16.707151 6.2000623 -1.2461296
-18.990498 7.0474176 -0.94461888
-18.758003 6.9611387 0
-21.705359 8.0549088 0.53751564
-21.672653 8.0427723 1.0780337
-41.592056 15.434909 3.10221
-40.658283 15.088384 4.0460014
-9.8734789 3.6954684 -1.481637
-11.555082 4.3248625 -1.4428241
-16.710329 6.2543802 -1.2476643
-19.045588 7.1284261 -0.94834554
-18.901978 7.0746751 -0.46857959
-18.775953 7.0275068 0
-21.716488 8.1280966 0.53835118
-21.689405 8.11796 1.0799903
-37.077385 13.877408 2.7683554
-37.326134 13.97051 3.7182789
-41.048355 15.363671 5.1254983
-9.8507042 3.7222705 -1.4799669
-11.537721 4.3597407 -1.4423594
-16.712994 6.3153138 -1.2493385
-19.043655 7.1959972 -0.94937032
-18.926416 7.1516962 -0.46974009
-18.798685 7.1034303 0
-22.662857 8.5635786 1.6941057
-37.516773 14.176406 3.7416875
-41.064922 15.517139 5.1336288
-9.8427763 3.7487504 -1.4802452
-11.529981 4.3913441 -1.4428241
-16.72064 6.3682747 -1.2511522
-19.084494 7.2685795 -0.95235163
-18.95808 7.2204337 -0.47099352
-18.815535 7.1661429 0
-21.725368 8.2743912 0.5397439
-22.664597 8.6321087 1.6959193
-40.310036 15.352605 4.0242648
-41.00745 15.618224 5.1315379
-9.8013716 3.7682824 -1.4757916
-11.525398 4.4311099 -1.4439855
-16.721035 6.4286489 -1.2526867
-19.111914 7.3478575 -0.95486718
-18.998756 7.3043523 -0.47257182
-18.852667 7.2481866 0
-40.166615 15.442649 3.0091546
-40.146362 15.434862 4.0127463
-40.845078 15.703494 5.1173677
-42.719715 16.424225 6.432303
-9.8074312 3.8020825 -1.4782969
-11.49631 4.4568162 -1.4418949
-16.729061 6.4854159 -1.2546399
-19.154655 7.4257545 -0.95803487
-19.021162 7.3740029 -0.47363949
-18.871513 7.3159876 0
-38.555161 14.946818 2.8915455
-37.401588 14.499608 3.7424307
-39.693478 15.388115 4.9784517
-9.8016396 3.8333292 -1.4791318
-11.494135 4.4952478 -1.4432887
-16.726469 6.5415645 -1.2558956
-19.139978 7.4854655 -0.95840752
-19.034578 7.4442444 -0.47452152
-18.926088 7.4018149 0
-21.730928 8.4987612 0.54174
-38.280239 14.971041 2.8742459
-37.423309 14.635904 3.7489331
-40.702152 15.918228 5.1108632
-41.42733 16.201839 6.2516561
-9.7846956 3.8602147 -1.4782969
-11.467812 4.52423 -1.4416625
-16.732967 6.6014161 -1.2578487
-23.92173 9.4374943 -1.1992439
-19.057047 7.518301 -0.47563565
-18.950556 7.4762888 0
-22.068304 8.7062893 0.55079222
-21.754797 8.5826063 1.0906112
-40.633495 16.030546 3.0544965
-39.704491 15.664039 3.9820919
-40.651043 16.037468 5.1103988
-41.419605 16.340677 6.2577796
-9.7837601 3.8894744 -1.4796885
-11.454083 4.5535011 -1.4414303
-16.741585 6.6555157 -1.259802
-23.965633 9.5273924 -1.202691
-22.019426 8.7536888 -0.55014229
-22.010492 8.7501373 0
-22.173643 8.8149977 0.55399531
-37.967987 15.093943 2.8570855
-40.2444 15.998918 4.0404282
-39.966534 15.888453 5.0295577
-41.349083 16.438076 6.2536044
-9.7696524 3.9194543 -1.4794102
-11.439721 4.5894637 -1.4414303
-16.737257 6.7147646 -1.2610575
-23.978228 9.6197453 -1.2048339
-22.036352 8.8406906 -0.55125642
-22.186663 8.9009933 0.55501658
-21.827381 8.7568541 1.0967603
-40.807133 16.371277 3.0745862
-40.34549 16.186071 4.0556626
-39.818707 15.974734 5.0172458
-41.389141 16.604771 6.2675219
-9.7660151 3.9496901 -1.4805236
-11.430544 4.622879 -1.4418949
-16.751734 6.7749391 -1.2635688
-24.040174 9.7226181 -1.2093059
-22.054214 8.9194317 -0.55232412
-22.041615 8.9143362 0
-22.206209 8.9809036 0.55613071
-21.832478 8.8297548 1.098251
-40.115753 16.224098 3.0258963
-40.274292 16.288216 4.0530615
-41.315071 16.709141 6.2633467
-9.7553921 3.9810998 -1.4808019
-11.425161 4.6625195 -1.4430563
-16.752535 6.8365798 -1.2652429
-25.106403 10.245728 -1.2645539
-22.06496 9.0045395 -0.55329895
-22.056091 9.0009203 0
-22.211208 9.0642214 0.55696625
-21.836077 8.9111328 1.0998348
-38.054802 15.529869 2.8741064
-39.970329 16.311581 4.0276089
-39.715862 16.207735 5.0163169
-41.409073 16.898722 6.2856145
-9.744236 4.008327 -1.4808019
-11.413933 4.6951628 -1.4432887
-16.762899 6.8954797 -1.2674751
-25.051826 10.30516 -1.2632495
-22.08041 9.0828571 -0.55432028
-22.067863 9.0776958 0
-22.243132 9.1497927 0.55840534
-21.853603 8.9895592 1.1019777
-39.861935 16.397352 3.0140376
-39.254269 16.147387 3.9599833
-39.859665 16.396418 5.0402436
-40.843372 16.801069 6.2068424
-9.7421532 4.0393138 -1.4821937
-11.404447 4.728538 -1.4437532
-16.769381 6.9529591 -1.2694283
-25.01926 10.373544 -1.2630632
-22.097441 9.1620913 -0.55538797
-22.088615 9.158432 0
-22.271059 9.2340775 0.55975157
-21.86717 9.0666161 1.1039342
-35.470215 14.706742 2.6850662
-39.245819 16.27219 3.9636991
-40.34404 16.727537 5.107379
-41.295753 17.122139 6.2828307
-9.723526 4.0634494 -1.4810802
-11.396696 4.7626653 -1.4444501
-16.770149 7.0082245 -1.270963
-24.969915 10.434896 -1.2620384
-22.119734 9.2438097 -0.55659491
-22.105396 9.2378178 0
-22.291306 9.3155088 0.56091207
-21.897064 9.1507559 1.1067291
-37.363743 15.614262 2.8316944
-39.143265 16.357922 3.9579399
-40.81953 17.05843 5.1735849
-41.041283 17.1511 6.2513781
-9.7034111 4.0909019 -1.4799669
-11.381677 4.7984486 -1.4444501
-16.779301 7.0740557 -1.2733347
-24.927803 10.509418 -1.2615725
-22.136642 9.3326797 -0.55775541
-22.124178 9.327425 0
-21.89398 9.2303743 1.1080335
-39.559219 16.677938 3.0020397
-39.126541 16.495523 3.9614699
-39.984138 16.85708 5.0743923
-40.912373 17.248419 6.2399659
-9.6974192 4.1203022 -1.4808019
-11.366407 4.829433 -1.4442179
-16.783354 7.1310205 -1.2751483
-22.259775 9.4578772 -1.1278781
-22.140387 9.4071512 0
-44.874283 19.066477 1.1319906
-21.904896 9.3070936 1.1098968
-39.69796 16.867126 3.0161304
-39.386406 16.734751 3.9924958
-39.936916 16.968655 5.0743923
-9.681509 4.1475 -1.4802452
-11.357503 4.8654857 -1.4449148
-16.787794 7.1917901 -1.2771015
-22.176517 9.5002861 -1.125083
-22.154657 9.490922 0
-44.854263 19.215298 1.132919
-21.923092 9.3917208 1.112226
-39.689911 17.002918 3.0193391
-39.470196 16.908794 4.0060582
-39.877251 17.083174 5.0732303
-40.981655 17.556295 6.265852
-9.6764326 4.1793489 -1.4813585
-11.34484 4.8999515 -1.445147
-16.795689 7.2542276 -1.2793337
-22.179409 9.5795116 -1.1266669
-22.562811 9.7451067 -0.57061422
-22.174137 9.5772343 0
-44.800728 19.349888 1.1330118
-21.937313 9.4749479 1.1143688
-39.622807 17.113491 3.0180836
-38.758068 16.740002 3.9388041
-39.855568 17.214022 5.0769472
-9.6701736 4.208724 -1.4821937
-11.32565 4.9292326 -1.4444501
-16.800978 7.3122454 -1.2812868
-22.205698 9.6645279 -1.1293687
-22.566679 9.8216362 -0.57140338
-22.189486 9.6574717 0
-44.71352 19.460548 1.1321763
-21.941912 9.5497208 1.1159527
-39.368145 17.134094 3.0023186
-39.615002 17.241533 4.0307674
-9.6529398 4.233326 -1.4813585
-11.315478 4.9624367 -1.4449148
-16.795109 7.3655448 -1.282403
-22.198748 9.7353277 -1.1303935
-22.586771 9.9054956 -0.57261038
-22.217377 9.7434969 0
-44.695618 19.601397 1.1331047
-21.964558 9.6326218 1.1184682
-39.601524 17.367367 3.0238037
-39.561226 17.349695 4.03021
-39.673302 17.398846 5.0660291
-9.6338348 4.2570643 -1.4802452
-11.307027 4.9964256 -1.4456117
-16.812798 7.4293532 -1.2853328
-22.215332 9.8166618 -1.1326295
-22.615715 9.9935856 -0.57404941
-22.246792 9.8305626 0
-44.690083 19.747957 1.134358
-21.959499 9.7036123 1.1195861
-39.454323 17.434345 3.0162699
-39.607338 17.501959 4.0398707
-40.523964 17.907005 5.1810184
-9.6258421 4.2897258 -1.4810802
-11.293091 5.0327296 -1.4458441
-16.805779 7.4894409 -1.2865883
-22.226355 9.9051037 -1.1347723
-22.609779 10.075975 -0.57469928
-22.292528 9.9345932 0
-44.673489 19.908598 1.1355186
-21.969055 9.7904396 1.1216358
-39.229881 17.48267 3.0032952
-39.459396 17.584955 4.0303955
-40.117325 17.878157 5.1361842
-82.880653 36.935497 12.752432
-9.6102114 4.3149676 -1.4805236
-11.275368 5.0626197 -1.4453794
-16.821199 7.5526886 -1.2893786
-22.309784 10.017053 -1.1404555
-22.568785 10.133344 -0.57437438
-44.687035 20.064398 1.1372826
-21.998129 9.877121 1.124524
-39.508236 17.739126 4.0404282
-39.753731 17.849354 5.0959959
-9.5963192 4.3409719 -1.4802452
-11.264806 5.0957251 -1.4458441
-16.81822 7.6078568 -1.2907739
-24.598906 11.127513 -1.259057
-44.772232 20.253078 0
-44.685478 20.213835 1.1386752
-21.997763 9.9508648 1.1259216
-40.769459 18.442392 3.1289964
-39.906685 18.052109 4.0863166
-39.777939 17.99387 5.1055202
-9.5924091 4.3735323 -1.481637
-11.246023 5.1274757 -1.4453794
-16.828251 7.6726184 -1.293285
-24.562149 11.198788 -1.2588707
-22.308107 10.171087 -0.56922162
-44.743389 20.400158 2.2932091
-40.981419 18.684937 3.1495047
-39.921806 18.20182 4.0933762
-39.928623 18.204929 5.1317706
-9.5801582 4.4003029 -1.481637
-11.233465 5.1596904 -1.4456117
-16.835766 7.7329068 -1.2955172
-24.563457 11.282346 -1.2605476
-22.332308 10.257547 -0.57056779
-44.749352 20.554014 0
-44.628277 20.498404 1.1402072
-44.722557 20.541706 2.2950726
-40.769531 18.726027 3.1372278
-39.836441 18.297443 4.0898466
-40.04731 18.3943 5.1536069
-9.5626907 4.4287138 -1.4810802
-11.220804 5.1966262 -1.4460763
-16.833115 7.7958221 -1.2971914
-24.506134 11.349384 -1.2594297
-44.735371 20.718033 0
-44.621716 20.665396 1.1416926
-44.706745 20.704777 2.2975881
-40.74128 18.868271 3.1395996
-40.250378 18.640924 4.1383362
-39.956879 18.504997 5.1494255
-9.5600395 4.4579196 -1.4824719
-11.19636 5.2209477 -1.4446825
-16.854235 7.8592587 -1.3004001
-24.478151 11.414349 -1.2595228
-37.79554 17.62435 -0.96821517
-44.728104 20.857058 0
-44.603703 20.799047 1.142621
-44.695843 20.842014 2.299824
-40.615795 18.939457 3.1337399
-40.329578 18.80599 4.1515265
-51.183872 23.86743 6.6043291
-9.5424032 4.4862437 -1.4819154
-11.190689 5.2611656 -1.4460763
-1.061452 0.49902868 -0.10942671
-16.863768 7.9282937 -1.3030509
-20.133739 9.4656315 -1.0375062
-37.759892 17.752352 -0.96872586
-44.711231 21.020439 0
-44.586998 20.96203 1.1438744
-44.684391 21.00782 2.302619
-41.48415 19.503265 3.2054496
-41.940868 19.717987 4.3237481
-51.164364 24.0543 6.6115303
-9.5190983 4.5077887 -1.4802452
-11.199292 5.3034482 -1.4490962
-1.0762521 0.50966144 -0.11109877
-16.859594 7.9838958 -1.3044461
-37.695713 17.850885 -0.9683544
-44.690315 21.163193 0
-44.569851 21.106146 1.1449422
-44.676105 21.156464 2.3052278
-41.721634 19.757366 3.2280505
-50.886204 24.097269 5.2528539
-41.120327 19.472616 5.3206315
-9.5136223 4.5377641 -1.4813585
-1.062243 0.50666386 -0.10979827
-16.846235 8.0352411 -1.3051436
-19.330421 9.2201366 -0.99874872
-37.676395 17.970716 -0.96914357
-43.20676 20.608566 0
-44.563072 21.255491 1.1462884
-44.660133 21.301786 2.3074639
-41.740131 19.909018 3.2337706
-40.548569 19.340673 4.1912847
-51.149353 24.396986 6.6270947
-9.5118151 4.5736361 -1.4833071
-1.0750035 0.51690185 -0.11128455
-16.83889 8.0967674 -1.3065388
-19.402191 9.329299 -1.0039661
-37.684624 18.120176 -0.97081476
-43.2103 20.777128 0
-44.553741 21.423103 1.1477739
-44.643406 21.466217 2.3100724
-41.51915 19.963959 3.2214935
-40.449921 19.449833 4.1873832
-51.122585 24.581648 6.6335993
-1.1317993 0.54835194 -0.17674986
-1.1423372 0.5534575 -0.14844061
-1.0698808 0.51835263 -0.11091298
-16.825565 8.1519146 -1.3073758
-19.343861 9.3720179 -1.0023823
-37.663086 18.247602 -0.97165042
-43.972809 21.304636 0
-44.538567 21.578743 1.1490272
-44.635254 21.625587 2.3129606
-41.420231 20.067923 3.2184241
-41.073029 19.899708 4.2579808
-51.097694 24.756615 6.6398716
-1.1338235 0.55324751 -0.17730655
-1.1550694 0.56361437 -0.15029901
-1.0791671 0.52657801 -0.11202769
-16.804529 8.1997452 -1.3075154
-19.269135 9.4023457 -0.99986672
-37.653309 18.372877 -0.97271806
-43.913143 21.427353 0
-44.533836 21.730219 1.1504663
-44.623165 21.773806 2.3154759
-46.41328 22.647291 3.6112928
-50.835392 24.805056 5.2771912
-51.090843 24.929701 6.6480017
-0.80413985 0.39516297 -0.14720544
-1.1198316 0.55029726 -0.17535813
-1.1124858 0.54668748 -0.14495608
-1.0455226 0.51378101 -0.10868358
-19.228458 9.4490709 -0.99912149
-37.682606 18.517639 -0.97480702
-43.93211 21.588711 0
-44.517841 21.876545 1.1516268
-44.614182 21.923889 2.3181779
-50.835625 24.981173 5.2844372
-51.079857 25.101191 6.6556678
-1.1163225 0.55293328 -0.17507976
-1.0555809 0.52284694 -0.13775474
-1.0635324 0.52678537 -0.11072719
-19.216581 9.5182953 -1.000053
-37.609921 18.628824 -0.97443569
-44.618591 22.100338 0
-44.495483 22.03936 1.1528338
-44.591637 22.086985 2.3206003
-41.365105 20.488831 3.227911
-50.797943 25.161072 5.2887096
-51.061279 25.291508 6.6635661
-0.79831809 0.39802682 -0.14655696
-1.1060085 0.55143571 -0.17368804
-1.0862077 0.54156333 -0.14193615
-1.0799705 0.53845358 -0.11258503
-16.740929 8.3467216 -1.3080734
-37.459019 18.676382 -0.97178966
-41.249313 20.566154 0
-44.48415 22.178984 1.1540408
-44.589077 22.2313 2.3234885
-41.120266 20.501814 3.2129831
-50.810299 25.333088 5.2968845
-51.046432 25.450819 6.6703024
-1.0937488 0.54938084 -0.17201796
-1.1360747 0.5706408 -0.14867291
-1.0926042 0.54880595 -0.1140713
-19.241673 9.6649313 -1.0041524
-37.428455 18.799999 -0.97243959
-41.250668 20.719864 0
-44.539646 22.371891 1.1571975
-44.578266 22.391291 2.3263764
-50.800758 25.516794 5.3037586
-51.032825 25.63336 6.6784329
-1.1045816 0.55869043 -0.17396638
-1.0937065 0.55318981 -0.14332998
-1.0768514 0.54466468 -0.11258503
-16.667654 8.4303951 -1.3061203
-19.262743 9.7429743 -1.006668
-37.514977 18.97484 -0.97606045
-43.871475 22.189917 0
-44.612598 22.564772 1.1607256
-44.615398 22.566187 2.331594
-50.770168 25.679234 5.3080316
-50.946865 25.768602 6.6765747
-1.0977229 0.55907619 -0.17313135
-1.0709161 0.54542333 -0.14054236
-1.0753263 0.54766947 -0.11258503
-16.61916 8.4642277 -1.304167
-19.142889 9.7495766 -1.0018233
-37.504608 19.101299 -0.97717452
-43.012711 21.906607 0
-44.608212 22.719202 1.1622574
-44.614517 22.722414 2.3348546
-38.130909 19.420277 2.9922738
-50.604221 25.773003 5.2981849
-50.612732 25.777336 6.6421938
-0.7953651 0.4082357 -0.14688119
-1.0818651 0.55528706 -0.17090458
-1.0656627 0.5469709 -0.14007775
-1.0753722 0.55195451 -0.11277083
-16.587162 8.5136642 -1.3037485
-19.176151 9.8425102 -1.0051773
-37.474655 19.234552 -0.97796375
-42.941902 22.040716 0
-44.593536 22.888451 1.1637429
-44.598015 22.890747 2.3377428
-37.931263 19.468914 2.9813917
-50.227142 25.780001 5.267159
-50.186882 25.759336 6.5968952
-0.79064417 0.40878108 -0.14623272
-1.0485452 0.54212177 -0.16589434
-1.0499187 0.5428319 -0.13821934
-1.0949566 0.56611753 -0.11500023
-16.547649 8.5555124 -1.3026325
-19.141537 9.8966112 -1.0048977
-37.477806 19.376881 -0.97954208
-44.619152 23.06912 0
-44.576939 23.047295 1.1650891
-44.586689 23.052334 2.3407242
-37.153786 19.209354 2.9247494
-37.704361 19.494015 3.9599833
-49.780258 25.737528 6.5534549
-0.79292852 0.41294834 -0.14688119
-1.0557151 0.54980463 -0.16728608
-1.0518271 0.5477798 -0.13868393
-1.1038692 0.57488281 -0.11611492
-16.532808 8.6101027 -1.3034694
-19.110317 9.9524412 -1.0048046
-37.480442 19.519398 -0.98112035
-44.596626 23.225428 0
-44.563335 23.208088 1.1665282
-44.571247 23.21221 2.3435192
-49.456871 25.756588 5.2023201
-49.388302 25.720879 6.5118732
-0.80065799 0.41946381 -0.14850241
-1.0719121 0.56157351 -0.17006953
-1.0364087 0.54297328 -0.13682553
-1.0654186 0.55817157 -0.11221347
-16.538231 8.66436 -1.3055623
-19.146112 10.030626 -1.0079722
-37.455662 19.622978 -0.98172385
-44.578724 23.354742 0
-44.568485 23.349379 1.168153
-44.57811 23.35442 2.3468733
-36.010796 18.866014 3.792778
-49.033215 25.688444 6.4733109
-0.79577237 0.4202733 -0.14785393
-1.0577849 0.55865067 -0.16812111
-1.0398719 0.54919022 -0.13752243
-1.0670835 0.5635615 -0.11258503
-16.509407 8.7191553 -1.3055623
-19.232872 10.157506 -1.0143076
-37.480556 19.794703 -0.9840914
-44.412605 23.455742 0
-44.549152 23.527859 1.1696849
-44.558716 23.532909 2.3499477
-37.028847 19.556139 2.9282372
-48.767124 25.755507 5.1452847
-48.742241 25.742365 6.4461317
-0.79292673 0.42142883 -0.14752968
-1.0493233 0.5576998 -0.16700773
-1.0612341 0.56403023 -0.14054236
-1.0726382 0.57009137 -0.11332817
-1.0834807 0.575854 -0.085800461
-19.490242 10.358776 -1.0293075
-37.448029 19.903072 -0.98460197
-43.985477 23.37763 0
-44.540379 23.672552 1.1710775
-44.548119 23.676666 2.3526497
-37.018047 19.674543 2.9314461
-48.537758 25.797102 5.1281924
-48.522079 25.788767 6.4259214
-0.79507828 0.4257814 -0.14817816
-1.0440741 0.55912399 -0.16645105
-1.052452 0.56361055 -0.13961314
-1.0831301 0.58003932 -0.11462866
-1.0992543 0.58867413 -0.08719559
-19.417093 10.398269 -1.0271647
-37.434662 20.047062 -0.98590177
-38.56432 20.652018 0
-44.52042 23.841637 1.1725166
-44.552761 23.858955 2.356842
-37.007053 19.818068 2.9354918
-48.340603 25.887426 5.1159306
-48.31823 25.875444 6.4096603
-0.78693753 0.42425391 -0.14688119
-1.0372785 0.55921781 -0.16561601
-1.0815061 0.58306181 -0.11462866
-1.0835567 0.5841673 -0.086079493
-19.426668 10.47331 -1.0292144
-37.478851 20.205606 -0.9885478
-38.494175 20.752989 0
-38.399326 20.701853 1.0128263
-37.606525 20.274439 1.9923732
-48.185745 25.977909 5.1071992
-48.151367 25.959375 6.3971162
-0.79268789 0.43021521 -0.14817816
-1.0217874 0.55455428 -0.16338924
-1.0956255 0.59462839 -0.11630072
-1.0906888 0.59194911 -0.086777054
-19.392078 10.524655 -1.0289348
-37.434589 20.31686 -0.98887283
-40.478642 21.968956 0
-38.387062 20.833794 1.0140333
-36.4995 19.809359 2.9039619
-48.046505 26.076262 5.1001391
-47.993141 26.047298 6.3857336
-0.79140806 0.43256512 -0.14817816
-1.0270891 0.56138289 -0.16450262
-1.0938566 0.59787637 -0.11630072
-1.1116868 0.60762203 -0.088590726
-19.344992 10.57352 -1.0280963
-37.400463 20.442219 -0.98956913
-40.446625 22.10718 0
-44.509659 24.327938 1.1776694
-44.513641 24.330114 2.3656931
-36.191967 19.781683 2.884151
-38.098011 20.823483 4.0506463
-47.847668 26.152416 6.3766737
-0.78673881 0.43287081 -0.14752968
-1.0185766 0.56043005 -0.16338924
-1.0869485 0.59804893 -0.11574336
-1.1064895 0.60880059 -0.088311695
-19.374901 10.660245 -1.0312639
-37.394032 20.574535 -0.9909153
-44.535877 24.504042 0
-38.413586 21.135502 1.0179328
-44.496281 24.482256 2.3683949
-35.979263 19.796116 2.8715949
-47.775139 26.286314 5.0873203
-47.7379 26.265825 6.3717952
-0.7922793 0.43916768 -0.14882664
-1.0185429 0.56458765 -0.16366757
-1.0989977 0.6091845 -0.11722963
-1.0836316 0.60066694 -0.086637542
-19.446154 10.779181 -1.036854
-40.877975 22.659037 0
-38.373219 21.270628 1.018629
-44.482044 24.656805 2.3717487
-35.808704 19.849092 2.8629453
-47.650517 26.413118 5.0828614
-47.622131 26.397383 6.3673816
-0.78070939 0.43560863 -0.14688119
-10.855778 6.0571456 -1.4537423
-12.891011 7.1927352 -1.377216
-16.21183 9.0456362 -1.2981679
-18.006315 10.046897 -0.96157515
-40.711502 22.715599 0
-38.341614 21.393284 1.0193717
-44.461872 24.808176 2.3743575
-35.699131 19.918871 2.8586204
-37.127087 20.71562 3.966486
-47.530891 26.52058 6.3650589
-0.78285456 0.43985662 -0.14752968
-10.818707 6.0786257 -1.4511869
-12.855723 7.2231483 -1.3757297
-16.167522 9.0839252 -1.2967728
-19.509153 10.961461 -1.0435621
-40.680538 22.856869 0
-38.312828 21.526541 1.0203001
-47.498806 26.687798 2.5407536
-35.688572 20.052071 2.8625267
-47.476768 26.675417 5.0806322
-47.436401 26.652733 6.362968
-0.79536611 0.44981307 -0.15012361
-10.801691 6.1088114 -1.4511869
-12.852838 7.2688212 -1.3775876
-16.129938 9.12216 -1.2957962
-41.04829 23.214539 0
-47.421074 26.818615 1.2648492
-47.425835 26.821308 2.5408466
-35.512611 20.083878 2.8529003
-47.396896 26.804943 5.0800748
-47.358337 26.783136 6.3625035
-0.79239172 0.45105612 -0.14979936
-9.2015982 5.2378607 -1.4880389
-10.772505 6.1320734 -1.4495608
-12.818644 7.2968044 -1.3761013
-16.093998 9.1612463 -1.2949592
-19.614307 11.165126 -1.0525061
-41.18145 23.441872 0
-47.347733 26.951927 1.2648956
-47.340328 26.947714 2.5402877
-44.259361 25.193922 3.5612075
-47.332237 26.943108 5.0811892
-47.293713 26.921177 6.3638968
-0.78925872 0.45256162 -0.14947513
-9.1524534 5.2480245 -1.4827503
-10.75491 6.1668744 -1.4497931
-12.818113 7.3499174 -1.3785164
-16.063406 9.2107706 -1.2948196
-19.378092 11.111415 -1.0416987
-41.59861 23.852678 0
-47.274967 27.107506 1.2652205
-47.271034 27.105251 2.5411263
-43.849411 25.14329 3.5345604
-47.266361 27.102571 5.0832329
-47.231304 27.08247 6.3669171
-0.79490912 0.45857111 -0.15077209
-9.1369677 5.2709789 -1.4824719
-10.737007 6.1940179 -1.4495608
-12.800552 7.3844461 -1.3787023
-16.042694 9.2547884 -1.2950987
-18.234482 10.519198 -0.98169923
-38.485264 22.201569 0
-47.229816 27.24617 1.2659168
-47.229332 27.245892 2.5427101
-43.821457 25.279938 3.5376296
-47.221119 27.241152 5.0860195
-47.204979 27.231842 6.3729572
-0.79517096 0.4620575 -0.15109633
-9.1186514 5.2986608 -1.4821937
-10.717497 6.2277169 -1.4495608
-12.7859 7.4296236 -1.379631
-16.018717 9.3081465 -1.2955172
-18.144342 10.543304 -0.97862476
-38.574421 22.414803 0
-47.176838 27.41349 1.2667989
-37.404568 21.735025 2.0174353
-35.642765 20.711279 2.8826165
-47.197296 27.425377 5.0927076
-47.151833 27.39896 6.3773704
-0.79898834 0.46726519 -0.15206905
-9.0952702 5.3191051 -1.4808019
-10.696633 6.2556162 -1.4490962
-12.763384 7.4642949 -1.3794453
-15.975437 9.3427715 -1.2941221
-18.073439 10.569726 -0.97638869
-38.390823 22.451761 0
-47.15015 27.5744 1.2681451
-38.038727 22.245846 2.0549815
-35.538288 20.783539 2.8788495
-42.21629 24.688972 4.5626664
-47.131721 27.563622 6.3850369
-42.145977 24.647854 6.8617911
-0.80278277 0.47249782 -0.15304178
-9.0820875 5.345489 -1.4810802
-10.679122 6.2854633 -1.4490962
-12.757935 7.5089998 -1.3811175
-15.947565 9.3863363 -1.2939826
-18.076565 10.639412 -0.97815889
-38.205597 22.486856 0
-47.169456 27.76276 1.2707447
-36.679981 21.588917 1.9848268
-47.182392 27.770372 5.1077566
-47.153854 27.753576 6.39851
-42.059917 24.755411 6.8590078
-0.80638748 0.47803646 -0.1540145
-9.0550289 5.3679328 -1.4794102
-10.654199 6.3159404 -1.4483993
-12.727431 7.5449786 -1.3803743
-15.900839 9.4262133 -1.2925874
-18.049927 10.700219 -0.97853154
-38.351543 22.73527 0
-47.128456 27.93833 1.271998
-36.615421 21.706074 1.9850132
-37.44978 22.200691 3.044312
-47.187424 27.973288 5.1177888
-41.861519 24.816025 5.6909199
-0.7999649 0.47725314 -0.15304178
-9.0502081 5.3992872 -1.4810802
-10.650167 6.3538113 -1.4502578
-12.704602 7.5794711 -1.3801885
-15.869313 9.467515 -1.2921689
-18.00625 10.742395 -0.97778624
-38.485424 22.960119 0
-47.151558 28.13027 1.2747369
-44.479469 26.536123 2.4153509
-43.243965 25.799028 3.5211673
-47.204887 28.162086 5.1281924
-47.196465 28.157061 6.4268508
-0.78670245 0.47251153 -0.15077209
-9.0375443 5.4281564 -1.481637
-10.634673 6.3874283 -1.4507223
-12.680349 7.6161084 -1.3800027
-15.841152 9.5145588 -1.2921689
-17.936617 10.773144 -0.97573656
-20.608057 12.377671 -0.55812681
-42.934875 25.78767 0
-47.201584 28.350351 1.2783579
-47.224701 28.364239 2.5689831
-35.309933 21.207954 2.8802447
-47.24403 28.375847 5.1415691
-47.206367 28.353226 6.4396272
-0.78377354 0.47354898 -0.15044785
-9.0300817 5.4558949 -1.4827503
-10.611114 6.41114 -1.4497931
-12.653548 7.6451616 -1.3792596
-15.799112 9.5456829 -1.2907739
-17.908352 10.820066 -0.97573656
-20.54991 12.416072 -0.55743051
-38.310368 23.146784 0
-38.303471 23.142616 1.0390081
-47.423538 28.65288 5.169251
-47.388714 28.63184 6.4747047
-0.77553821 0.47190529 -0.14915088
-9.0112066 5.4832063 -1.4824719
-10.582436 6.4392791 -1.4486315
-12.632872 7.686944 -1.379631
-15.753706 9.5859327 -1.2895181
-17.89646 10.889771 -0.97694767
-36.235527 22.048862 -0.98478764
-41.792969 25.430496 0
-47.430378 28.86079 1.2890348
-35.163151 21.396336 1.9195168
-47.573158 28.94767 5.1954465
-47.570053 28.94578 6.5118732
-0.77590048 0.47509977 -0.14947513
-8.9891024 5.5042114 -1.4813585
-10.581353 6.4791799 -1.4509546
-12.616451 7.7253118 -1.3801885
-15.714966 9.6225958 -1.2885416
-17.855757 10.933446 -0.97638869
-20.547487 12.581648 -0.55938017
-41.6945 25.530397 0
-47.605377 29.149748 1.2959981
-42.886192 26.260094 2.345103
-36.995506 22.653107 3.0334301
-42.607906 26.089695 4.6611319
-0.77289045 0.47622943 -0.14915088
-8.9736958 5.5292935 -1.4813585
-10.553071 6.5024519 -1.4495608
-12.584656 7.7542472 -1.3790737
-15.672745 9.6570253 -1.2872859
-17.879583 11.016805 -0.97937
-36.239483 22.329567 -0.98826933
-41.609417 25.63834 0
-44.566956 27.460678 1.2153637
-42.821194 26.384996 2.3455689
-37.214062 22.930069 3.0565891
-42.819706 26.384081 4.6923437
-0.7798596 0.48372188 -0.15077209
-8.9656658 5.5611143 -1.4827503
-10.523602 6.5274525 -1.448167
-12.564977 7.7936516 -1.3794453
-15.632154 9.6961231 -1.2863094
-17.906237 11.106664 -0.98263091
-36.225742 22.469666 -0.98970842
-41.568855 25.783825 0
-50.157017 31.110786 1.370319
-43.274113 26.841543 2.3747301
-36.650787 22.733305 3.0158513
-43.895348 27.226873 4.8190484
-0.78176892 0.48812416 -0.15142056
-8.9323263 5.5772038 -1.4799669
-10.504188 6.5586491 -1.448167
-12.535041 7.8266811 -1.3787023
-15.594854 9.7371807 -1.2856117
-17.925735 11.192547 -0.98551905
-36.257278 22.638472 -0.99240077
-45.902977 28.661093 0
-43.913067 27.418625 1.2019479
-42.957031 26.821692 2.3616867
-37.153492 23.198051 3.0628672
-42.517117 26.547014 4.6763663
-0.78357321 0.49267858 -0.15206905
-8.9231453 5.6105065 -1.4813585
-10.483533 6.5916142 -1.448167
-12.508707 7.8649597 -1.3785164
-15.569256 9.7893076 -1.2860303
-18.073149 11.363652 -0.99558115
-36.279083 22.810795 -0.99495399
-45.785629 28.788118 0
-42.693291 26.843784 2.3518112
-42.56464 26.762892 3.515866
-43.686066 27.468 4.8144035
-0.77894461 0.49261859 -0.15142056
-8.9101009 5.6349082 -1.481637
-10.467918 6.6201 -1.4483993
-12.494804 7.9019389 -1.3792596
-15.540201 9.8279028 -1.2857513
-18.137892 11.470729 -1.0007985
-36.281761 22.94524 -0.99667162
-45.676292 28.886509 0
-43.35899 27.421005 1.1910852
-43.423214 27.46162 2.3959723
-42.415688 26.824444 4.6821256
-0.78746861 0.50128651 -0.15336601
-8.8966827 5.6634474 -1.4821937
-10.44823 6.6511307 -1.4483993
-12.464584 7.9347005 -1.3785164
-15.505923 9.8707552 -1.2853328
-18.150965 11.554535 -1.0034071
-36.323158 23.122583 -0.99968904
-45.398045 28.899471 0
-43.270756 27.545282 2.3920591
-42.51548 27.064491 3.5242367
-42.191441 26.858212 4.6661482
-0.7859779 0.50362062 -0.15336601
-8.8765068 5.6876807 -1.481637
-10.431797 6.6842437 -1.448864
-12.446018 7.9748693 -1.3790737
-15.449693 9.8994942 -1.2831006
-19.835121 12.709486 -0.54693919
-45.243061 28.989794 0
-43.256451 27.71686 3.5924585
-42.436848 27.191694 4.7021904
-0.7780211 0.50140029 -0.15206905
-8.8665791 5.714119 -1.4824719
-10.42428 6.7179885 -1.4502578
-12.421748 8.0052691 -1.3787023
-15.418689 9.9366646 -1.2826821
-17.4816 11.26612 -0.96986705
-36.353119 23.42798 -1.004099
-45.183819 29.118979 0
-43.067543 27.755131 2.3893573
-42.586708 27.445255 3.5427918
-42.34877 27.291914 4.7003322
-0.78471977 0.50921357 -0.15369026
-8.8469229 5.7408686 -1.4821937
-10.391458 6.743135 -1.4486315
-12.389856 8.0399179 -1.3779591
-15.387397 9.9850559 -1.2826821
-19.885708 12.904061 -0.55037445
-45.196136 29.328287 0
-48.711262 31.609289 1.3481759
-43.15443 28.003399 2.3990467
-42.481869 27.566967 3.5412571
-42.20937 27.390139 4.6943874
-0.77659607 0.50722283 -0.1523933
-8.8248749 5.7638435 -1.4813585
-10.366414 6.770679 -1.4479346
-12.379284 8.0853558 -1.3794453
-15.337657 10.017576 -1.2810079
